NCOLS 174
NROWS 32
XLLCORNER 353872
YLLCORNER 6700048
CELLSIZE 16 
NODATA_value -3.4e+38 
4.36302614212036 5.13444995880127 4.40779590606689 18.3738288879395 3.41752243041992 1.42997634410858 1.9722489118576 1.41486382484436 2.49451303482056 1.76772272586823 4.04138469696045 6.51600694656372 5.9004020690918 3.54488825798035 5.57113361358643 7.46135425567627 5.18106317520142 15.2392606735229 7.24378633499146 7.39990377426147 2.46705532073975 2.91228294372559 5.89358329772949 33.0540428161621 28.0630912780762 2.52144408226013 2.69938540458679 3.09330081939697 3.22254991531372 3.32950234413147 3.83985090255737 4.00276470184326 4.42278051376343 4.65330123901367 5.78566551208496 5.36294841766357 5.2432107925415 5.95090389251709 4.98296403884888 5.54234170913696 3.66243600845337 4.59040117263794 4.41761112213135 4.36991214752197 5.47060918807983 5.86833667755127 5.8529224395752 7.62821817398071 7.6519021987915 8.43121433258057 8.65911960601807 7.91633605957031 10.1238784790039 8.16036987304688 8.24120426177979 8.98595905303955 10.0576152801514 10.1361284255981 8.24270725250244 13.9574127197266 12.6982831954956 3.1485321521759 3.03400206565857 2.75627040863037 5.2322301864624 8.34927368164062 8.80608749389648 7.69577503204346 12.1003017425537 10.2345199584961 18.1155738830566 18.430534362793 8.00114917755127 2.81013631820679 9.56819343566895 14.4396152496338 6.88198137283325 11.3869819641113 9.58333683013916 17.053861618042 17.2350311279297 10.4510354995728 9.71300792694092 9.69733428955078 8.5384521484375 10.0444040298462 18.8211154937744 13.6440458297729 32.1339263916016 11.6439800262451 13.7997150421143 10.567889213562 11.7405185699463 20.311128616333 9.59310626983643 7.55503797531128 5.79156112670898 7.7231707572937 6.04173421859741 14.9610614776611 3.50129389762878 6.15121650695801 8.47764301300049 5.46550893783569 5.56804609298706 0.395517349243164 5.75983905792236 6.226393699646 5.90626001358032 12.0604887008667 11.6540327072144 26.8463821411133 25.1278667449951 23.1606845855713 38.6427803039551 26.3926372528076 23.5752716064453 11.8042573928833 8.26770114898682 3.6219425201416 2.07765626907349 1.14653444290161 1.166907787323 15.7088832855225 12.7346277236938 25.3641662597656 35.7328338623047 46.3630561828613 26.3434982299805 10.5307931900024 9.01994323730469 9.02713584899902 7.99391460418701 10.8399629592896 17.316535949707 20.5320281982422 20.1766242980957 14.2814884185791 18.3040866851807 12.0765628814697 14.4912567138672 5.92279195785522 -1.97150158882141 2.94938588142395 -0.293514162302017 28.0640735626221 28.1662254333496 20.2055072784424 35.6571311950684 5.18335962295532 6.23809099197388 9.71299266815186 9.65870952606201 11.0603761672974 12.8519334793091 12.2041091918945 11.8476476669312 11.5975980758667 8.47637176513672 7.95332670211792 8.54281520843506 5.34500551223755 6.16144037246704 4.9029335975647 3.85646486282349 2.34201335906982 3.68187570571899 2.55925393104553 2.02167344093323 2.76076650619507 3.5670280456543 4.21387767791748 4.03748273849487 4.50042390823364
4.89771699905396 4.12874269485474 2.57464289665222 11.9050207138062 1.34155070781708 1.87492287158966 1.37006855010986 2.27774381637573 1.4794225692749 3.00869464874268 5.74045467376709 4.73514652252197 3.32851123809814 5.16917753219604 6.46869659423828 4.42938947677612 11.6119422912598 7.61806488037109 6.42970323562622 3.07473492622375 2.86563420295715 4.82840538024902 11.3489542007446 22.4103870391846 18.512866973877 2.41579079627991 2.65916514396667 2.67616081237793 2.8126904964447 3.46650767326355 3.44853591918945 3.92154455184937 4.12354278564453 5.12463283538818 4.84488105773926 4.74960327148438 5.41628408432007 4.52958488464355 5.05623340606689 3.38332581520081 4.25082445144653 4.08207511901855 4.04370260238647 5.06935548782349 5.11956167221069 5.55451583862305 6.22465229034424 7.12464666366577 7.55730628967285 7.69721126556396 6.77921342849731 8.66589736938477 7.01328897476196 6.69167566299438 7.39285516738892 7.9856972694397 8.23921871185303 7.19399976730347 9.52766990661621 8.55627632141113 3.17536473274231 2.91224408149719 2.96848702430725 3.84963655471802 6.06923532485962 6.12178087234497 5.29840278625488 8.13488578796387 7.35896682739258 13.2421579360962 14.0459442138672 28.4862003326416 13.1782989501953 7.39572143554688 15.8334398269653 4.71031332015991 7.34277963638306 8.42611885070801 9.915846824646 11.6487064361572 9.31680488586426 9.71749305725098 8.26393127441406 8.17913818359375 9.56324195861816 10.2075386047363 12.3002328872681 13.0315828323364 9.16158580780029 11.9232196807861 15.5864496231079 6.44324064254761 9.64721202850342 14.2608880996704 19.2754802703857 7.0875997543335 11.2201738357544 4.54826498031616 4.8373646736145 18.6232452392578 6.02356386184692 7.43170738220215 12.573691368103 15.1136045455933 41.1923751831055 2.1992609500885 5.6305775642395 1.65272581577301 2.54495882987976 4.01176118850708 7.80088233947754 18.8742733001709 20.7569942474365 21.6138401031494 24.0529861450195 29.0040740966797 20.7658882141113 20.5029945373535 21.4844875335693 20.4433860778809 3.94442820549011 2.95297336578369 2.06607890129089 5.23194551467896 17.0245552062988 24.1108722686768 19.6979122161865 35.6976509094238 33.1473121643066 25.7144145965576 14.4908475875854 8.17108726501465 7.97212171554565 11.214072227478 19.4506397247314 24.8566627502441 24.1811504364014 20.5910949707031 14.9303359985352 13.5455617904663 13.2675609588623 15.9156894683838 9.92393016815186 11.7151880264282 5.31268405914307 14.5165109634399 13.501989364624 9.32676792144775 26.2082824707031 6.27847623825073 6.72744035720825 8.41789245605469 9.57688140869141 11.03675365448 10.6579866409302 10.1525411605835 9.92591094970703 7.61252164840698 7.15861558914185 6.89477872848511 8.23371696472168 5.74005222320557 4.16338300704956 4.95863056182861 4.95483350753784 3.61768269538879 2.33741354942322 1.79650771617889 2.60311889648438 3.01847505569458 3.46120929718018 3.75767707824707 4.20618772506714 4.14218950271606
4.81839609146118 2.48412823677063 7.07241725921631 1.21485328674316 1.75295960903168 1.39000391960144 2.13846492767334 1.43119323253632 1.65044713020325 3.69325876235962 5.41256093978882 4.17564821243286 4.55672025680542 6.03652572631836 3.97846746444702 9.36283111572266 6.62950992584229 5.57830429077148 5.85388326644897 2.76909875869751 4.41962766647339 8.83705902099609 14.7778825759888 11.795973777771 2.24396157264709 2.14014577865601 2.51689863204956 2.44362378120422 2.94826555252075 3.0168628692627 3.33657574653625 3.60768961906433 4.59129285812378 4.3417706489563 4.25421476364136 4.90478992462158 4.48825311660767 4.64425468444824 3.53596377372742 3.84988641738892 4.11243724822998 3.95132613182068 4.68077230453491 4.74574375152588 5.09366321563721 5.4466404914856 6.40225410461426 5.74094820022583 7.01739931106567 7.19724702835083 7.67698955535889 6.23237705230713 4.72280120849609 5.99464225769043 6.61176538467407 7.04103660583496 6.43228054046631 7.4494891166687 6.64113807678223 3.18206906318665 2.90731620788574 2.96637368202209 3.59781813621521 4.00138759613037 5.46313381195068 5.46441173553467 5.85257053375244 4.64389324188232 9.39961242675781 10.1047973632812 10.8381233215332 29.7787475585938 25.583122253418 16.9759254455566 4.87993621826172 5.94186592102051 6.06825733184814 8.268141746521 8.35044574737549 11.795841217041 8.54189491271973 8.58814334869385 6.91996717453003 7.53572988510132 8.48963928222656 9.43299007415771 10.0083131790161 6.9176607131958 8.56391334533691 7.77199554443359 27.067476272583 8.41222095489502 6.53366470336914 6.07821416854858 18.1062183380127 21.3913650512695 20.8880233764648 27.4144515991211 12.0820808410645 16.204496383667 6.10522842407227 11.6909627914429 18.5978012084961 12.6563987731934 9.71239852905273 4.64699602127075 21.5958862304688 2.09209132194519 1.76009500026703 3.37998795509338 7.63634157180786 11.1282978057861 18.9068546295166 19.1791915893555 18.1791744232178 15.6424074172974 25.8204517364502 18.8967514038086 18.7851829528809 23.874547958374 11.9538669586182 8.41301250457764 2.38126683235168 4.97373008728027 17.5619468688965 15.350269317627 23.3605194091797 26.7943058013916 39.6868057250977 14.8851461410522 12.4408702850342 19.7252502441406 9.62488269805908 13.2278709411621 18.7405281066895 17.9765911102295 21.9276180267334 17.8599624633789 18.0424175262451 13.8840446472168 15.9492378234863 19.9763813018799 10.3873538970947 23.2677135467529 9.02490901947021 8.88312339782715 7.51260614395142 17.9476490020752 5.38514423370361 5.15478277206421 8.16712188720703 8.51589298248291 9.62772464752197 9.52668380737305 8.82429981231689 8.60518741607666 8.78551864624023 7.30332708358765 6.18162298202515 7.43652391433716 5.27711200714111 3.49474453926086 3.81262183189392 4.22090673446655 4.93505477905273 4.27188682556152 2.55120253562927 1.98275661468506 2.79967951774597 3.16357064247131 3.47655749320984 3.56200671195984 3.6798198223114 3.97348141670227
3.95555472373962 5.79254055023193 1.22852838039398 1.6698362827301 1.25313496589661 1.22199487686157 2.11312031745911 1.58615040779114 3.10195565223694 4.79707479476929 3.87722492218018 3.4181661605835 5.19466876983643 3.88180899620056 3.82913160324097 8.38584327697754 4.86225938796997 5.17717838287354 2.33903121948242 2.65149760246277 7.55484676361084 11.3801574707031 8.9434232711792 2.14815878868103 2.00679016113281 2.34270453453064 2.24476456642151 2.396977186203 2.76003193855286 2.80938982963562 3.11010599136353 3.98789501190186 3.68954753875732 3.83213305473328 4.42520761489868 4.04293918609619 4.23988580703735 3.25378131866455 3.00724959373474 3.80478191375732 3.6646728515625 4.30465936660767 4.30191850662231 4.68620729446411 4.69107961654663 5.81689262390137 5.46134662628174 6.30966281890869 6.48300218582153 6.74079322814941 5.50627756118774 4.5204439163208 5.40314912796021 5.70604705810547 5.86688613891602 5.77261400222778 5.94104623794556 5.48108053207397 2.29854917526245 1.22496140003204 2.85101437568665 3.45010256767273 3.88648891448975 4.86366891860962 4.49043655395508 3.54600238800049 5.06079959869385 7.11760902404785 7.75012063980103 8.38088703155518 12.3010454177856 19.3577709197998 15.6926765441895 19.4190101623535 11.6030111312866 18.0909862518311 9.15513038635254 7.27880525588989 8.49480438232422 7.73124933242798 7.12300395965576 6.27048873901367 6.51844263076782 8.20170116424561 9.23843288421631 11.4453058242798 13.7053098678589 8.39777565002441 7.30716514587402 6.15624713897705 6.95687675476074 5.79376792907715 8.77611351013184 8.0330171585083 13.4739198684692 8.26822853088379 22.8573532104492 29.815767288208 22.0122756958008 18.3173370361328 12.7672519683838 12.8484411239624 16.1882476806641 33.0891571044922 29.2701530456543 30.3572082519531 27.294677734375 25.8229961395264 4.08464908599854 6.84191083908081 8.67988109588623 14.1530237197876 15.1199502944946 22.3398265838623 14.1384878158569 13.7317781448364 14.9289131164551 37.109691619873 25.0237636566162 45.3352203369141 20.6564083099365 15.6122312545776 4.6096715927124 13.9852819442749 11.1064500808716 3.96243047714233 10.553825378418 24.7336864471436 42.6357040405273 28.1995506286621 9.99104595184326 9.59385299682617 9.54520606994629 13.2748403549194 15.0448331832886 15.1974544525146 13.8899364471436 15.1739864349365 13.4156475067139 14.1153392791748 21.733642578125 28.0606708526611 18.350944519043 21.2916679382324 6.91964292526245 6.50155973434448 9.46553707122803 4.27978277206421 16.0762596130371 10.1317720413208 7.46284198760986 8.57771110534668 9.33212280273438 8.79736042022705 8.41054821014404 8.16400623321533 6.6314754486084 6.13332748413086 6.63002157211304 4.34740161895752 5.12372875213623 3.05347919464111 3.27415180206299 3.7106728553772 3.59908199310303 4.01147747039795 2.99021315574646 2.01547932624817 2.41052746772766 2.7344605922699 3.21119117736816 3.38949060440063 3.58463597297668 3.95918917655945
4.73718166351318 3.24384737014771 1.78713428974152 1.67617583274841 1.12978410720825 1.82864165306091 1.52096652984619 2.3464937210083 4.38269758224487 3.46834874153137 2.49816727638245 3.73475813865662 4.84403133392334 3.701500415802 7.45064926147461 4.42141246795654 4.62238073348999 2.23724436759949 2.55377745628357 3.7696807384491 9.56545162200928 7.50414752960205 2.1158983707428 2.09856414794922 2.20434713363647 2.08670115470886 2.11148142814636 2.47384285926819 2.45324969291687 2.70103859901428 2.87512993812561 3.74827337265015 3.46542119979858 3.6640453338623 4.1864914894104 3.49772357940674 3.99391984939575 2.76867270469666 3.58221697807312 3.38310074806213 3.38767147064209 4.09390878677368 4.34121084213257 4.36230421066284 4.67631483078003 5.50373315811157 5.73270225524902 5.88982486724854 4.94806814193726 6.31243085861206 5.2144832611084 4.70866203308105 5.14182662963867 5.28268003463745 4.81787776947021 5.06151294708252 1.83795177936554 1.83432865142822 24.6840362548828 1.33810746669769 1.56369292736053 1.59159016609192 4.54458951950073 4.12334489822388 3.0299129486084 4.05385208129883 4.44996309280396 5.94678640365601 6.63569211959839 8.78974151611328 12.670220375061 10.3888750076294 7.05832004547119 12.2838926315308 7.20172262191772 11.5972032546997 15.2715358734131 6.07722759246826 14.3205213546753 9.54790687561035 5.47716379165649 6.05094289779663 7.99193429946899 9.17702198028564 8.68791389465332 6.86834001541138 11.1509380340576 7.11573076248169 7.16337108612061 5.24892854690552 5.20242595672607 14.0286245346069 4.36529922485352 5.07116651535034 6.55413866043091 7.53914976119995 14.1070337295532 6.6259880065918 13.2016534805298 11.4302568435669 9.98765754699707 11.604287147522 20.212272644043 30.7112216949463 30.0602474212646 30.8724308013916 37.3956680297852 46.748462677002 21.9832420349121 9.75998687744141 9.87783908843994 8.79606914520264 14.2750253677368 15.0598163604736 30.3382358551025 13.3721990585327 24.0701904296875 30.7118072509766 29.6097602844238 33.467643737793 28.6734161376953 4.21766138076782 3.04219579696655 12.6140623092651 8.05108451843262 5.12240743637085 6.89469480514526 20.630392074585 30.9950046539307 46.293285369873 25.8500576019287 8.91684818267822 11.5211067199707 12.5918626785278 13.1129522323608 13.1881141662598 11.6331472396851 12.2961015701294 9.95106506347656 15.0617074966431 18.4222373962402 29.213342666626 9.67336368560791 18.3577442169189 8.83944511413574 17.4205284118652 4.26764297485352 5.38698625564575 14.2278985977173 6.66796731948853 7.61856412887573 8.38767147064209 8.5260534286499 7.91524219512939 7.52468347549438 6.21000528335571 5.65908527374268 5.42801713943481 6.42512273788452 4.70996141433716 3.19354033470154 2.82619714736938 2.85270309448242 3.38021445274353 2.59326481819153 2.29477620124817 2.13798880577087 2.1968822479248 2.26659822463989 2.65071773529053 3.03587865829468 3.22420763969421 3.35399556159973 3.90629243850708
4.33877801895142 2.07511949539185 1.63496041297913 1.15368330478668 1.71952569484711 1.21204459667206 1.4904237985611 2.83865523338318 4.218581199646 3.22157907485962 3.50159239768982 4.29401636123657 3.37068176269531 6.66333293914795 5.21725702285767 4.32806730270386 2.22030591964722 2.43177723884583 3.48822379112244 6.08923244476318 8.62514877319336 6.87057828903198 2.08833718299866 2.11825919151306 1.97452175617218 1.97670352458954 2.28769969940186 2.2314236164093 2.42153358459473 2.51328945159912 3.28360295295715 3.09986400604248 3.26638960838318 3.68773579597473 3.15295505523682 3.63875913619995 2.57577753067017 3.22238039970398 3.11143779754639 3.22928714752197 3.8441743850708 3.95896983146667 4.1645302772522 4.32420921325684 5.07655477523804 4.66789436340332 5.47551774978638 5.61555576324463 5.68148183822632 4.70758533477783 4.14663028717041 4.50039291381836 4.5877571105957 4.32567310333252 4.72828578948975 17.8657627105713 18.1568336486816 1.97426855564117 7.08814382553101 1.41703963279724 5.11024475097656 3.92025804519653 3.17774415016174 2.08223032951355 3.45847010612488 3.95219612121582 4.50995874404907 4.7681450843811 6.29321146011353 9.76414775848389 7.66029071807861 7.77566051483154 8.07553100585938 6.26470994949341 7.44048404693604 6.98133373260498 24.5270938873291 5.8751859664917 11.6480474472046 21.0390701293945 5.25178527832031 6.26632642745972 7.09547233581543 12.485424041748 7.76702642440796 6.40117597579956 5.55932807922363 6.83100938796997 11.4319477081299 4.77346038818359 5.27816915512085 18.548885345459 3.86568284034729 3.80072665214539 3.53198313713074 4.67349004745483 3.19003915786743 2.57704663276672 5.59943389892578 2.76250696182251 9.01077270507812 15.8593912124634 20.6411037445068 21.9446277618408 21.0335121154785 24.4900398254395 24.4995365142822 39.0689964294434 35.2174377441406 35.1332168579102 25.9466667175293 13.7161979675293 14.1598138809204 14.8765573501587 27.6713886260986 15.7916193008423 19.5033626556396 20.9084873199463 22.5508098602295 23.0821914672852 40.4552688598633 17.2456359863281 3.84230780601501 18.4174289703369 6.61750411987305 6.5582914352417 9.28144359588623 9.82450294494629 23.2793197631836 34.7257270812988 44.4172744750977 33.5811614990234 27.319164276123 13.6561832427979 12.5997533798218 14.2561550140381 11.2500095367432 27.8375225067139 13.5652523040771 37.0349578857422 28.1234569549561 31.7281665802002 8.09669017791748 10.8642892837524 5.98826217651367 13.2713203430176 3.8507399559021 9.19009971618652 6.67753267288208 7.16055870056152 7.81127691268921 7.88996648788452 7.37840175628662 7.15991115570068 7.2965931892395 5.45717525482178 5.19238185882568 6.03860282897949 4.39741563796997 2.99106025695801 2.86880826950073 2.69496989250183 3.17458724975586 2.28075981140137 1.53788757324219 1.27586734294891 1.31085360050201 1.67681384086609 2.02018237113953 2.01676416397095 2.65277481079102 2.77497959136963 3.00923013687134 3.03931140899658
1.22131073474884 1.6265195608139 1.1408851146698 1.63250660896301 1.18111348152161 1.44326436519623 2.50683903694153 3.82718420028687 2.97052717208862 3.36959838867188 3.89454412460327 3.21939969062805 5.71757745742798 4.74320697784424 4.04685306549072 4.13131093978882 2.49296140670776 3.32312822341919 5.50680303573608 7.57652425765991 6.18573331832886 3.0859169960022 2.46253347396851 2.06018114089966 1.8819100856781 2.15236139297485 2.07498407363892 2.22734880447388 2.27974963188171 2.92481875419617 2.72286748886108 2.72236037254333 3.28468656539917 3.13385105133057 3.15947675704956 2.32852959632874 2.80219864845276 3.05792260169983 2.93506932258606 3.448406457901 3.60091924667358 3.76840686798096 3.88956451416016 4.57850980758667 4.26166915893555 4.99914503097534 5.16043663024902 5.18580961227417 4.26952648162842 3.55178928375244 3.73788070678711 3.98591661453247 4.16953754425049 4.3093786239624 3.87594366073608 9.92924213409424 9.15264320373535 5.55006217956543 14.2058839797974 6.42862319946289 10.4961462020874 2.62990760803223 2.1160261631012 2.51992082595825 3.20300507545471 4.16038990020752 4.36327791213989 4.21394157409668 5.98038673400879 8.33409023284912 6.56007385253906 6.17278861999512 5.41768598556519 5.83575105667114 6.38176298141479 6.90701627731323 5.39789342880249 7.07845497131348 8.97657108306885 25.3329830169678 5.70550060272217 6.83317232131958 7.04291963577271 7.40765237808228 6.21665573120117 6.05329656600952 4.87280559539795 5.17840814590454 4.65226793289185 5.00295829772949 5.28248596191406 3.85076880455017 2.83882308006287 2.30133605003357 2.32031536102295 1.6059730052948 5.14028549194336 2.9622950553894 2.14261555671692 4.31926345825195 7.16268634796143 11.0127086639404 10.466362953186 17.3298778533936 18.6280899047852 18.9371910095215 23.2205104827881 21.8221817016602 23.4114952087402 22.6766738891602 24.7548980712891 10.0788145065308 12.3464317321777 11.5135717391968 18.8773517608643 12.8569946289062 12.3373355865479 16.6369876861572 16.9587802886963 15.7219266891479 29.6918849945068 39.2589416503906 7.86605405807495 35.2512893676758 21.6326580047607 17.79225730896 8.09181976318359 9.30037879943848 13.4425935745239 18.0311088562012 36.2772941589355 35.5827674865723 27.6781787872314 31.3231143951416 23.2633228302002 16.2446250915527 20.4377250671387 27.4415493011475 16.0344429016113 29.610782623291 19.5542526245117 23.3170738220215 8.52869129180908 5.69058084487915 9.39659881591797 18.0278816223145 5.56033754348755 6.26829481124878 6.71094417572021 7.30186414718628 7.6484751701355 7.30641984939575 7.14465045928955 7.07100009918213 6.10561227798462 5.1125054359436 5.87377595901489 4.33053350448608 2.92452502250671 2.75624942779541 2.4978232383728 3.01549005508423 2.73230338096619 2.22323489189148 0.970876812934875 0.930752277374268 1.37778115272522 1.14398896694183 1.05364942550659 1.90180552005768 1.95676934719086 2.56597137451172 2.8151478767395 2.33430290222168
1.17490792274475 2.36678647994995 2.53920793533325 2.45762705802917 2.08131194114685 2.41648411750793 3.55974888801575 2.78279113769531 2.55739378929138 3.32785177230835 3.75774359703064 3.20935869216919 5.36026382446289 3.62398338317871 3.95763254165649 2.19076657295227 2.34965586662292 5.12118196487427 6.82518911361694 5.59658193588257 2.28885436058044 3.04609942436218 2.99014377593994 1.87752282619476 1.87355601787567 2.09202790260315 2.00294923782349 2.14441537857056 2.69165182113647 2.4532642364502 2.44507884979248 2.90746283531189 2.78162574768066 2.85208773612976 2.08221864700317 2.0661768913269 2.80533647537231 2.73265361785889 3.18306970596313 3.17697238922119 3.43934917449951 3.46827936172485 4.08757925033569 3.81488251686096 4.39678382873535 4.56890439987183 3.67012548446655 4.76428699493408 3.88993239402771 3.23453736305237 3.51124787330627 3.75754499435425 3.47622632980347 3.98616123199463 7.21543264389038 7.65803384780884 15.0931901931763 13.2911796569824 0.987588405609131 7.11797380447388 0.825887084007263 1.88005971908569 8.74181461334229 16.3828048706055 3.78513026237488 4.32125473022461 3.42087149620056 2.99686169624329 5.72187042236328 4.74511861801147 4.75064373016357 5.19144678115845 5.53604030609131 5.93822860717773 6.2671799659729 25.738208770752 9.89008617401123 7.59695434570312 11.1190595626831 13.933876991272 10.9977684020996 6.69088172912598 6.7082347869873 4.71407604217529 5.31341695785522 4.7000207901001 4.97498321533203 7.8188042640686 4.47137880325317 4.94961309432983 10.3855772018433 5.24283027648926 2.00017023086548 1.83654940128326 1.16784799098969 0.591655194759369 1.23219203948975 1.19812059402466 1.42857658863068 3.4207022190094 8.13835048675537 13.9569177627563 9.57170486450195 17.7581729888916 15.2443561553955 11.6316890716553 8.81555652618408 17.5529022216797 13.9967098236084 16.7779731750488 29.6033668518066 11.7315540313721 11.122763633728 9.84585571289062 11.8501596450806 12.711986541748 12.5814027786255 11.2055006027222 12.7295122146606 20.5524024963379 21.8810653686523 30.6651782989502 19.6840591430664 33.4857597351074 30.8289947509766 23.6267471313477 22.5091514587402 11.5760583877563 15.3816709518433 24.3530101776123 24.3428173065186 25.4145965576172 33.2684936523438 28.9522953033447 27.1904010772705 25.9095611572266 23.067892074585 30.5181465148926 16.251256942749 17.4983768463135 17.5583972930908 16.3963184356689 6.32545948028564 8.88217544555664 3.9499990940094 1.32554996013641 3.30914902687073 5.90742301940918 6.75730800628662 7.03637504577637 6.77061319351196 6.63406181335449 6.54755210876465 5.75136613845825 5.35796308517456 5.68881416320801 5.02466106414795 4.51434326171875 3.29762983322144 2.50113773345947 2.27666211128235 2.95394492149353 2.12056970596313 1.26081085205078 0.958936631679535 0.370316207408905 0.784727573394775 0.501402318477631 0.559872686862946 1.60191547870636 2.21762919425964 2.34480667114258 22.4797019958496 2.79086089134216
1.57653331756592 2.3960907459259 3.39661312103271 3.42996621131897 2.24171018600464 3.37178540229797 2.55535054206848 2.0018265247345 3.2265956401825 3.51676821708679 3.14257574081421 4.86758804321289 3.99056315422058 3.5614378452301 2.18015670776367 2.2675564289093 3.0482234954834 6.26227951049805 5.18914556503296 2.2221200466156 2.21458554267883 2.82444024085999 3.2367799282074 1.86549723148346 2.03248500823975 1.94196009635925 2.04160618782043 2.05062317848206 2.58854746818542 2.34894442558289 2.54273676872253 2.75863218307495 2.22739696502686 2.65474009513855 1.78732132911682 2.47050476074219 2.38671231269836 2.59819102287292 3.03159260749817 3.16440200805664 3.19581007957458 3.32209420204163 3.85408806800842 3.96507358551025 4.08825635910034 3.1510283946991 4.14453458786011 3.38749241828918 2.78884887695312 3.12446045875549 3.31184387207031 3.00588703155518 3.61061501502991 5.11970281600952 5.45751142501831 5.96480894088745 9.9481840133667 30.8532028198242 7.21401691436768 29.9814834594727 15.0033330917358 1.32959735393524 3.21202230453491 10.2810878753662 3.17948532104492 11.3511648178101 6.85979652404785 4.02728605270386 3.66625022888184 4.30611228942871 4.03446006774902 4.06630945205688 5.6911768913269 5.70195817947388 5.96630954742432 16.3665428161621 6.90880966186523 6.62955617904663 10.1831188201904 9.16444110870361 15.5666704177856 6.1097526550293 5.91392993927002 15.7285270690918 8.62298679351807 4.26542615890503 4.83989191055298 7.91378164291382 4.56724452972412 10.2875051498413 23.4648265838623 16.5193252563477 1.72046422958374 0.882020175457001 -0.863798022270203 -0.0587988942861557 -0.15767839550972 -0.896655857563019 1.00239205360413 5.12998628616333 3.57201027870178 10.1491403579712 12.7212944030762 17.7890510559082 24.1717109680176 14.4754362106323 6.94319486618042 9.10835075378418 9.74916172027588 11.8035850524902 21.4105701446533 10.7831783294678 8.10029029846191 9.25844573974609 7.73998880386353 11.7725801467896 9.33609294891357 5.47185802459717 14.7168436050415 15.7877779006958 20.7495098114014 23.2011394500732 23.8517036437988 21.8600177764893 23.3710765838623 29.071949005127 8.63017749786377 8.55438709259033 18.2468852996826 17.6451435089111 18.5282669067383 22.3219661712646 24.3775424957275 25.9379463195801 32.9896545410156 29.9981498718262 27.7603225708008 25.0111656188965 13.0354881286621 11.0048265457153 13.0747871398926 7.55491065979004 8.59241104125977 7.38252353668213 26.4119739532471 33.175838470459 3.62204217910767 4.73540735244751 6.59897756576538 6.77883434295654 6.38890933990479 6.11926651000977 5.4164252281189 4.98063182830811 4.86028528213501 5.61524486541748 4.23999738693237 3.10412454605103 2.56373977661133 2.24142146110535 2.83635830879211 2.03352475166321 1.13898265361786 0.929457485675812 0.546374022960663 0.119072608649731 0.102043882012367 0.414377510547638 0.426322668790817 1.41454410552979 1.97678518295288 2.18915486335754 16.0820083618164 22.7470359802246
1.12428021430969 1.63087916374207 1.80892693996429 1.75548887252808 2.38133406639099 3.31598567962646 2.50520849227905 3.14325046539307 3.2825174331665 2.98591899871826 4.46958875656128 3.78003787994385 3.12329792976379 3.43035292625427 2.04875779151917 2.88677620887756 4.50897169113159 5.89348173141479 4.8986964225769 2.15665411949158 2.21283674240112 2.50985240936279 3.34386682510376 2.71210408210754 1.91729319095612 1.99338030815125 1.97939121723175 2.44769144058228 2.2010509967804 2.15873956680298 2.52532553672791 2.3931450843811 2.37782073020935 1.75125598907471 2.02510213851929 2.27550005912781 2.2239100933075 2.60539841651917 2.92722201347351 3.01457405090332 3.01691961288452 3.48474192619324 3.22681355476379 3.6742582321167 3.80027318000793 3.64717793464661 2.90411162376404 2.35269594192505 2.5066659450531 2.74792385101318 2.9152045249939 3.18632292747498 3.59825205802917 4.04668664932251 2.84426498413086 6.23095655441284 6.94158220291138 20.6734180450439 2.18980622291565 19.9859199523926 27.3234233856201 10.3382577896118 2.95956158638 13.2446956634521 2.97379755973816 15.7279005050659 10.5222005844116 2.92381739616394 3.42151355743408 4.25628328323364 15.4818964004517 4.63413619995117 5.520911693573 5.57203006744385 9.61598587036133 6.50526189804077 13.2643480300903 8.66637134552002 6.240149974823 6.68236255645752 29.2810573577881 5.15658473968506 4.83720874786377 7.01026248931885 9.29538154602051 4.45894241333008 4.33480072021484 9.04237461090088 7.45460796356201 5.93811798095703 28.0140266418457 28.4682464599609 19.5992469787598 5.03283786773682 -0.236217513680458 -0.507907450199127 4.92775011062622 0.00813897792249918 0.288201749324799 0.707987487316132 3.22898077964783 7.87140846252441 11.8299932479858 17.6962566375732 25.3418312072754 24.0418167114258 6.70702171325684 8.3151798248291 9.30161094665527 12.0068950653076 10.6369132995605 19.2522239685059 7.23340368270874 5.60248565673828 4.54415225982666 5.30888891220093 4.35194110870361 6.01616954803467 6.21912908554077 15.6360082626343 16.2434597015381 18.6394958496094 17.3053359985352 15.09592628479 20.9188232421875 33.0416145324707 34.4438247680664 15.595983505249 14.7963418960571 14.8162851333618 16.043420791626 17.557918548584 18.8809719085693 22.7942562103271 20.7950820922852 22.1383495330811 22.5001335144043 37.2829132080078 12.0868873596191 7.5469331741333 8.24003791809082 7.55184316635132 8.61892795562744 16.1867065429688 12.8259744644165 26.0245838165283 15.3750524520874 5.89873504638672 6.18583822250366 5.88653230667114 5.68756914138794 5.89446306228638 4.71983242034912 4.5703067779541 5.23182821273804 4.00565910339355 2.81572270393372 2.62555527687073 2.27579760551453 2.75105667114258 1.95333576202393 1.17125928401947 0.889146447181702 0.508309781551361 0.909718036651611 1.42150604724884 -1.0854070186615 -2.03649568557739 -0.526589334011078 -0.260685175657272 1.86192345619202 2.92613458633423 10.3817043304443 21.7358531951904
0.648402154445648 1.60429668426514 1.36514675617218 2.21712493896484 3.22054123878479 2.43550682067871 2.4285352230072 3.09038996696472 2.90208959579468 3.01648259162903 4.29973888397217 2.94372844696045 3.24933934211731 2.04732012748718 2.15840196609497 4.11066818237305 5.40651559829712 4.58196210861206 2.1165931224823 2.12531113624573 2.20442605018616 2.31008243560791 2.63725280761719 3.0809760093689 2.28166365623474 1.97225797176361 2.37494111061096 2.09294152259827 2.04923176765442 2.35220336914062 2.22008657455444 2.16110730171204 1.58307778835297 1.46196913719177 2.06829380989075 2.08014106750488 2.37971663475037 2.42654895782471 2.77433800697327 2.74141502380371 3.14944648742676 2.9706597328186 3.37093353271484 3.47374963760376 3.2741687297821 2.5505576133728 2.11797976493835 2.26170992851257 2.27744841575623 2.45440673828125 2.80585670471191 2.27418541908264 2.66870284080505 3.07367873191833 4.4582724571228 5.25839567184448 12.4377679824829 3.03280115127563 12.6382942199707 5.91237163543701 18.2085590362549 15.1060562133789 2.87993836402893 10.7203998565674 7.84230184555054 2.57089281082153 5.56982755661011 3.36817479133606 3.77424097061157 3.80313396453857 4.71785974502563 4.31521558761597 5.42553234100342 7.3902759552002 6.09253025054932 6.45005035400391 8.62156295776367 16.2322158813477 5.72672128677368 9.93535804748535 25.9605693817139 16.6020755767822 5.67936849594116 6.43907594680786 10.567006111145 7.70436143875122 4.19499921798706 4.37512111663818 12.2430038452148 13.2101945877075 25.8217678070068 17.4068412780762 20.5674591064453 9.25034618377686 1.59353566169739 -1.08068919181824 -1.21909093856812 -0.149065852165222 0.198423087596893 1.84333145618439 4.24848222732544 8.92464637756348 11.3614053726196 15.813157081604 12.8575077056885 21.3247051239014 18.6761722564697 8.69422626495361 9.49534225463867 9.5579252243042 12.094780921936 22.4523983001709 5.70057535171509 3.94530200958252 3.31635355949402 4.19197177886963 21.6774101257324 12.5359487533569 11.247465133667 11.8343572616577 15.3017425537109 14.419319152832 13.9231376647949 16.5107555389404 14.5651826858521 25.7153854370117 26.9648742675781 15.1407051086426 14.3563690185547 14.3857078552246 14.0789556503296 14.7036104202271 16.4258728027344 16.4149494171143 19.2049121856689 17.4643306732178 15.7370796203613 27.0449714660645 24.8177471160889 8.33665561676025 7.50895500183105 7.10357093811035 28.80078125 39.9554862976074 17.0870342254639 10.6837310791016 13.66441822052 5.63786458969116 5.4071216583252 5.4187650680542 5.43957233428955 5.03799867630005 4.32520961761475 4.95470809936523 3.79235768318176 2.66433906555176 2.49234199523926 2.18340253829956 2.70455765724182 2.38296437263489 1.83093738555908 0.810109913349152 0.580860376358032 0.376720875501633 1.04712069034576 36.7699203491211 31.0564956665039 -0.566044628620148 -0.476915836334229 -0.384403496980667 2.03978896141052 2.61781692504883 10.9763660430908 15.8530111312866
1.41458249092102 1.27667355537415 2.02933979034424 2.99887132644653 2.38198113441467 1.8608660697937 2.99035453796387 2.94853639602661 2.91323518753052 3.94805693626404 2.71337056159973 3.01010680198669 2.01093459129333 2.10558128356934 2.58085966110229 5.04724836349487 4.24862718582153 2.05098390579224 2.04583811759949 2.10931539535522 2.10359406471252 2.04394698143005 2.11816835403442 2.22392249107361 2.377605676651 1.96381604671478 2.33065962791443 2.0484185218811 2.18162798881531 2.28694796562195 1.76056134700775 2.07106256484985 1.32352948188782 1.88860714435577 0.532647669315338 1.95313370227814 2.29506230354309 2.51330018043518 2.49524927139282 2.87033081054688 2.6496434211731 3.00334239006042 3.14105534553528 2.22984552383423 3.02723836898804 2.32979202270508 2.08648109436035 2.03185844421387 2.0842490196228 1.9784083366394 2.51148653030396 1.9086629152298 2.22626352310181 3.19667744636536 4.21658802032471 8.85222244262695 2.22920942306519 8.46358680725098 4.17296409606934 11.3389081954956 3.94747042655945 22.1760425567627 3.02297210693359 6.9319224357605 22.1471748352051 8.58706760406494 3.06956696510315 4.86355972290039 3.89379119873047 3.91669631004333 13.6372442245483 4.58044528961182 6.08088684082031 5.87179565429688 6.19498348236084 6.12977886199951 7.53191041946411 25.4718246459961 6.67598533630371 10.6061983108521 15.9857711791992 16.0324401855469 4.41008472442627 5.64904642105103 10.7176237106323 17.1555633544922 3.85503315925598 3.96943044662476 13.0776824951172 12.650426864624 23.4009075164795 27.6805820465088 20.599666595459 15.0753183364868 11.5711450576782 3.592125415802 -0.530323147773743 -0.303165137767792 0.635753035545349 1.02349007129669 5.66129446029663 8.693528175354 10.6249952316284 7.95655727386475 9.01371669769287 19.9112186431885 9.8138313293457 8.28255462646484 9.5369701385498 9.6385669708252 12.2792625427246 13.7767486572266 24.4963817596436 3.18298649787903 2.07454490661621 2.39910650253296 3.50389766693115 18.068962097168 7.04931545257568 11.6018123626709 14.0076007843018 13.4984550476074 13.8413057327271 12.3507900238037 18.2229061126709 19.2934379577637 13.729959487915 13.138578414917 13.121301651001 13.2254190444946 13.6313486099243 13.894627571106 14.5459966659546 16.2420845031738 15.9070987701416 14.581597328186 18.4926700592041 13.7877893447876 17.2936191558838 7.24525451660156 16.3266315460205 6.99920654296875 20.0905303955078 33.2103805541992 14.8247289657593 9.3460865020752 6.39188957214355 5.23588180541992 4.97448635101318 4.85238265991211 4.63207864761353 4.33498764038086 4.64793729782104 3.32556319236755 3.71142816543579 2.39204430580139 2.21865296363831 2.08823180198669 2.64940237998962 3.3687219619751 0.769604802131653 0.720178306102753 0.132850095629692 0.49704697728157 1.01510071754456 29.0550518035889 31.4268054962158 13.7315940856934 -0.0207888446748257 -0.536683619022369 0.18234695494175 6.50110387802124 8.25074005126953 8.37500286102295
0.903292894363403 1.44715678691864 2.76315903663635 2.20639204978943 1.77417898178101 2.96025538444519 2.81471061706543 2.79619073867798 3.80582451820374 3.25233936309814 2.78062987327576 1.94825577735901 1.9023050069809 2.40451502799988 3.72018694877625 4.79709243774414 4.09356451034546 2.03340935707092 2.03236627578735 1.98056077957153 1.87890696525574 2.00674223899841 1.89658164978027 1.95802354812622 1.93601882457733 2.31942820549011 2.02908658981323 2.12523031234741 2.17999625205994 1.67373132705688 1.96933460235596 1.25919568538666 1.74048852920532 25.2884006500244 0.900779366493225 0.705654263496399 2.25037264823914 2.28004693984985 2.32720255851746 2.66329574584961 2.68144106864929 2.77015590667725 2.00974369049072 2.69093918800354 2.07594990730286 1.8275443315506 1.96680390834808 1.91356682777405 1.82355952262878 2.2454149723053 1.71300995349884 1.75767707824707 2.52417182922363 3.23611497879028 6.51479387283325 1.77638733386993 6.45060348510742 2.64448618888855 7.70309734344482 2.83375644683838 2.15063524246216 21.608081817627 4.23480796813965 2.99253511428833 14.6074476242065 18.3974475860596 3.46918654441833 3.15596985816956 8.65708923339844 3.94395422935486 3.57944083213806 3.89870500564575 5.50601434707642 5.85470914840698 5.45666074752808 6.53927564620972 7.01966142654419 5.23367691040039 8.06211948394775 10.4483680725098 14.0177669525146 21.038366317749 19.8350677490234 17.1439838409424 15.951114654541 17.9571590423584 18.5804424285889 6.21712160110474 10.8712549209595 13.7391862869263 15.7748146057129 26.5701599121094 22.6557731628418 20.3701362609863 5.96963024139404 2.06919836997986 -0.755808413028717 -0.0119514875113964 0.428553134202957 1.38131022453308 6.07305288314819 7.62133979797363 8.8515157699585 6.81179428100586 10.3413963317871 8.04629039764404 7.9414005279541 8.60742473602295 9.2211332321167 10.1976594924927 24.6226348876953 5.37195730209351 3.25082778930664 9.96912288665771 1.06549799442291 1.41101205348969 3.67561221122742 3.8064923286438 9.66421031951904 11.2623767852783 10.5759305953979 9.00018119812012 12.1237859725952 13.1165952682495 14.5847616195679 12.3193769454956 11.9821853637695 12.3323669433594 12.7865705490112 12.4944524765015 12.7246065139771 12.7034530639648 14.0471343994141 13.4645929336548 13.2407112121582 13.9611749649048 10.4050559997559 12.5172243118286 7.06066274642944 6.79784440994263 12.0708694458008 18.142692565918 23.7385673522949 20.7399883270264 21.2523097991943 10.4702987670898 9.19316387176514 5.18260049819946 4.71906089782715 4.25812292098999 3.91315841674805 3.93814969062805 4.57307624816895 3.52276682853699 2.47037100791931 2.11852741241455 2.00365376472473 2.54629135131836 2.39377641677856 5.12149477005005 4.05625915527344 0.269194334745407 0.114459745585918 0.800511658191681 16.8531322479248 29.9806156158447 37.4294281005859 41.7980804443359 38.4923362731934 25.7586078643799 1.57647669315338 1.43343067169189 5.34701776504517 7.70966148376465
1.11810481548309 1.75316441059113 2.67032122612 2.12268829345703 2.86290788650513 2.67979097366333 2.70203328132629 3.64232015609741 3.13065433502197 2.40394496917725 2.70708656311035 1.86591839790344 2.26650714874268 3.46525907516479 4.44452142715454 3.83171939849854 2.01861786842346 2.31633305549622 2.00304079055786 1.82558476924896 1.97163200378418 1.8661048412323 1.91169273853302 1.88262319564819 2.26291656494141 2.00989937782288 1.92979168891907 2.13630104064941 1.97964692115784 1.87971162796021 1.38214814662933 -0.0585555359721184 0.668782293796539 0.0735649242997169 0.178828150033951 0.163936883211136 2.03489375114441 2.08624196052551 2.40562725067139 2.26376843452454 2.51365303993225 2.55534625053406 2.32770037651062 1.8383092880249 1.67426812648773 1.83232080936432 1.78852868080139 1.78399467468262 2.04320216178894 1.62966024875641 1.59552526473999 1.5553126335144 2.68586993217468 2.59214997291565 5.47449016571045 1.45258283615112 5.65372276306152 5.80834770202637 2.1039834022522 16.6798629760742 2.48430514335632 14.6065244674683 13.4616069793701 8.95661544799805 4.48861360549927 7.88900375366211 15.3348579406738 4.32049417495728 15.1253356933594 24.527027130127 5.17551946640015 4.04664468765259 5.38616228103638 5.73610305786133 5.58884954452515 5.71699285507202 9.40479946136475 5.95735788345337 8.3431453704834 10.1669940948486 5.00638341903687 12.8323926925659 15.4204750061035 13.532751083374 16.3573169708252 19.3915786743164 18.9754276275635 5.9946117401123 10.6272306442261 15.2548055648804 17.048246383667 25.5846920013428 31.6212139129639 22.1585292816162 17.1945896148682 14.2845029830933 -0.307946026325226 0.394855946302414 1.2550448179245 1.19657945632935 4.82798051834106 4.61723852157593 6.47137403488159 8.28872966766357 8.04881763458252 7.87588167190552 9.06113433837891 8.35734176635742 8.45813941955566 6.28907871246338 26.9709415435791 20.3812465667725 4.83343648910522 1.98351895809174 1.39130187034607 3.17433094978333 3.07757687568665 3.8820493221283 4.73421335220337 6.38516759872437 7.74582529067993 9.42254447937012 9.11158275604248 10.2170505523682 10.3607959747314 10.8483648300171 11.5196990966797 12.0482664108276 11.8820543289185 11.7739267349243 12.1088314056396 12.8762121200562 12.4399261474609 13.0407133102417 12.1858835220337 10.9921054840088 9.40495300292969 6.82026100158691 6.5816855430603 9.38204383850098 12.9582681655884 18.3881988525391 13.8747053146362 15.4214725494385 12.7490282058716 8.34151268005371 8.92593193054199 7.5588173866272 4.69545412063599 4.27727699279785 3.54946899414062 4.12534713745117 3.28870940208435 2.33740496635437 2.19139528274536 1.95556592941284 2.4516487121582 2.26390910148621 2.46616697311401 3.9907591342926 5.6436185836792 4.36179971694946 2.1040472984314 12.8694658279419 18.8611335754395 25.5613098144531 21.9766693115234 38.6015205383301 35.9102630615234 32.0868377685547 30.3137683868408 4.14257049560547 6.54594039916992 10.7766246795654
1.57892167568207 2.41437125205994 1.90946805477142 2.19499349594116 2.50249361991882 2.60639929771423 2.73952603340149 3.54112601280212 2.67290616035461 2.54056787490845 1.86730325222015 1.96461498737335 3.27542185783386 4.1474347114563 3.57796168327332 1.97280013561249 1.86393749713898 1.99619555473328 1.83882129192352 1.87089109420776 1.93571615219116 1.8062686920166 1.8522082567215 2.19178009033203 1.94592869281769 1.89010536670685 2.1025698184967 1.95150566101074 1.83375024795532 1.34335660934448 32.6402397155762 0.324093192815781 -0.330839872360229 -0.314976572990417 -0.560910105705261 -0.547969341278076 -0.177509054541588 2.13030767440796 2.02786993980408 2.31521511077881 2.35113596916199 2.08918476104736 1.58404278755188 1.48493087291718 1.66391086578369 1.64737915992737 1.65134859085083 1.84987008571625 1.52681577205658 1.50086724758148 1.46857070922852 1.98530602455139 2.49438738822937 4.43782472610474 1.41976368427277 4.58067321777344 1.93387043476105 5.32049560546875 14.1878881454468 26.3186626434326 4.50136518478394 9.35671520233154 8.8105297088623 3.73561668395996 2.94235610961914 3.17055535316467 9.27071952819824 4.87465476989746 9.79481410980225 17.0580444335938 21.3361682891846 5.24739599227905 5.48143815994263 5.0759449005127 5.38594102859497 4.896803855896 14.0019445419312 5.83375787734985 8.34916877746582 13.8078384399414 8.09703540802002 9.04090976715088 8.52216339111328 10.5906572341919 15.2227563858032 18.1666889190674 22.8790798187256 14.8341197967529 11.0103645324707 13.4788293838501 18.4901275634766 20.882625579834 36.352954864502 28.8389225006104 14.0720024108887 14.8051414489746 0.344334006309509 1.35115480422974 0.919939041137695 2.05856442451477 2.3782365322113 3.99634218215942 5.61643505096436 7.10878849029541 6.90941286087036 7.30722522735596 6.60664796829224 6.15814638137817 12.4049272537231 11.6376104354858 9.33743858337402 6.36294984817505 11.9703407287598 1.04312443733215 7.04453897476196 2.23322439193726 3.27981686592102 3.93850231170654 4.76095914840698 7.6537938117981 7.90982389450073 7.92188501358032 8.42827224731445 9.24132919311523 9.72696971893311 10.4191217422485 11.1016578674316 11.0890321731567 11.0308399200439 11.3459043502808 11.3831739425659 12.4078884124756 12.2009706497192 11.6927366256714 10.57386302948 9.01941585540771 6.39368581771851 5.54818677902222 7.95162105560303 10.46226978302 15.3413228988647 12.2077560424805 12.158576965332 9.44199466705322 7.05183506011963 7.56139326095581 7.55439424514771 7.50078248977661 5.07665586471558 3.77609467506409 3.85743522644043 2.75997924804688 3.19471192359924 2.10851526260376 2.0017876625061 1.90061640739441 2.40644478797913 1.90715837478638 2.75466394424438 3.40724658966064 4.81716394424438 4.81880187988281 10.850980758667 15.5652942657471 19.708984375 27.0340118408203 17.2811145782471 30.8442687988281 28.679615020752 26.3356704711914 26.3284664154053 10.1517305374146 9.30935859680176 7.44004774093628
2.24340653419495 1.73642730712891 1.40211141109467 1.93092429637909 2.5090320110321 2.63259410858154 3.25736260414124 2.41738986968994 2.50447630882263 1.83021593093872 1.81733953952789 2.13894462585449 3.92246770858765 3.36976146697998 1.92244362831116 1.92188835144043 1.96900165081024 1.91009426116943 1.79465687274933 1.92889547348022 2.10334324836731 1.8453608751297 1.79558527469635 2.12103462219238 1.8754426240921 1.99139964580536 2.03864765167236 1.56576609611511 1.79157280921936 1.13304007053375 29.1183223724365 32.2211647033691 2.12460732460022 17.7639026641846 5.89271402359009 -0.434073030948639 -0.135909646749496 0.0413439460098743 2.02658152580261 2.15770530700684 1.48218822479248 1.95998907089233 1.4009120464325 1.49921929836273 1.47863900661469 1.49309694766998 1.44267308712006 1.67648363113403 1.39337313175201 1.3996250629425 1.70685660839081 2.20747542381287 3.8615574836731 1.3673141002655 3.83020782470703 1.64595711231232 4.38338994979858 2.88105297088623 12.3663177490234 17.3841762542725 6.00726270675659 2.72567844390869 2.15368604660034 15.0209341049194 2.71955704689026 5.46780872344971 1.80041682720184 5.85659027099609 9.89534664154053 11.0180797576904 15.5497531890869 5.32909297943115 4.92095279693604 3.33450412750244 4.08481121063232 6.80963277816772 5.68815565109253 6.30888366699219 4.74629211425781 7.8429741859436 5.96191453933716 7.2965669631958 7.8029088973999 10.6983795166016 12.062819480896 16.4298286437988 24.4494514465332 12.9314641952515 11.1664810180664 13.3617515563965 16.3715343475342 17.224946975708 28.2163715362549 38.2515869140625 28.7103157043457 19.8745403289795 8.36226844787598 9.09768104553223 5.790207862854 2.10382986068726 3.18210506439209 3.90830254554749 6.09503078460693 6.72216463088989 6.78619575500488 5.48390007019043 5.70264720916748 5.69279432296753 5.37993717193604 6.43415069580078 9.6790771484375 4.4949893951416 2.72765707969666 1.59649610519409 0.707569181919098 2.43467712402344 2.75583958625793 4.04611730575562 4.73457717895508 5.15312194824219 7.29899787902832 7.53958082199097 8.15121555328369 8.61198043823242 9.40836524963379 10.046763420105 10.4714879989624 10.7706775665283 10.6919574737549 10.6425180435181 11.2452068328857 11.3811159133911 10.8679161071777 10.7440614700317 8.39974784851074 7.391028881073 6.22748422622681 6.86643743515015 5.29551267623901 13.1341819763184 14.1111068725586 10.3435192108154 8.37527561187744 6.08993244171143 6.52911615371704 6.41426515579224 6.46515083312988 6.65095710754395 6.29805946350098 4.91459321975708 3.94045352935791 2.97502183914185 2.04779124259949 1.82570064067841 1.80392599105835 2.31684350967407 1.78420031070709 2.08264231681824 2.61010646820068 3.38145279884338 3.77155470848083 4.01472997665405 10.108452796936 16.3185691833496 18.6602249145508 31.2014808654785 24.0752239227295 22.5577602386475 19.4725914001465 23.6600341796875 15.0680341720581 9.44944000244141 6.95118856430054 9.66386699676514
2.22138094902039 1.69140017032623 1.77646541595459 2.21018767356873 2.4573540687561 2.92724895477295 2.65418863296509 2.39429807662964 1.78462660312653 1.77808451652527 2.06113505363464 3.04126572608948 3.78085041046143 3.2488055229187 1.8780015707016 1.92165017127991 1.81886327266693 1.79214417934418 1.92049098014832 1.8160046339035 1.84421002864838 1.78878200054169 2.09459829330444 1.83235538005829 1.91370856761932 1.94521999359131 1.48061943054199 1.7043194770813 1.24837613105774 13.77024269104 18.947624206543 38.1918983459473 8.14333248138428 20.1252765655518 12.575291633606 2.65267109870911 0.0542290173470974 -0.40496364235878 0.192598730325699 1.97417485713959 1.75152015686035 1.36025905609131 1.30289840698242 1.42130768299103 1.36545991897583 1.30051350593567 1.46614587306976 1.28158032894135 1.28688335418701 1.28064048290253 1.81869673728943 3.21974945068359 1.30246996879578 3.30609822273254 1.52624976634979 3.62896990776062 1.34045732021332 8.76557445526123 10.7239179611206 7.02638578414917 14.9269361495972 24.346887588501 4.04452991485596 23.6696300506592 8.7470760345459 1.64799022674561 0.642848491668701 5.33708190917969 4.98232078552246 8.61886978149414 4.93500566482544 3.7464382648468 2.28715300559998 3.17364645004272 4.76745271682739 5.2245888710022 4.81471109390259 4.48962926864624 6.04143381118774 4.94045877456665 6.3630166053772 5.76635694503784 7.72872304916382 8.54644203186035 11.950008392334 15.4972295761108 19.3569831848145 10.4625205993652 13.9720621109009 11.8135862350464 15.2009296417236 19.2829742431641 27.1954231262207 33.4983253479004 23.2255229949951 23.513635635376 23.7905025482178 26.247013092041 24.791051864624 6.70252513885498 3.46856451034546 5.37798976898193 5.12219953536987 5.47437191009521 18.0412979125977 5.44936227798462 5.50121784210205 5.49584484100342 12.5720777511597 9.28053188323975 20.8209705352783 21.4888229370117 5.07694911956787 3.18010711669922 1.48641228675842 2.67299914360046 3.62453603744507 4.05686140060425 4.66214609146118 5.50831890106201 5.55252504348755 7.38714218139648 7.99753284454346 8.16675281524658 9.11556816101074 9.70963478088379 9.92981243133545 9.99626922607422 9.84077262878418 10.2879304885864 10.6243133544922 10.1053485870361 9.94776248931885 8.0975923538208 6.96656322479248 5.87831449508667 5.08549737930298 6.63156652450562 11.6321439743042 12.0461835861206 9.10944843292236 9.25601673126221 6.00764799118042 5.71976518630981 5.46526002883911 5.70043277740479 5.52876138687134 5.46710157394409 5.94176244735718 5.15963888168335 2.97565317153931 1.9722489118576 1.76616907119751 1.62102830410004 2.13343381881714 1.71694660186768 1.74532401561737 2.16399073600769 2.59977865219116 2.89890360832214 2.83854651451111 7.89261960983276 8.09881401062012 8.36513805389404 12.2243394851685 13.4459428787231 18.2722873687744 14.7413063049316 18.1890487670898 13.0593280792236 8.1408576965332 8.65583896636963 8.78005027770996 9.23438835144043
1.64354026317596 1.34775543212891 2.04891419410706 1.46423828601837 2.68189978599548 2.45990443229675 2.14282178878784 2.28113222122192 1.74003958702087 1.97195196151733 2.90324091911316 3.61176252365112 3.11246967315674 1.84792745113373 1.74259901046753 1.87956309318542 1.7565690279007 1.90167856216431 1.80382359027863 1.84056341648102 1.91454231739044 2.08236765861511 1.82551193237305 1.73957324028015 1.87812042236328 1.72782373428345 1.57412922382355 1.15331602096558 9.81654262542725 11.9016914367676 18.9875030517578 30.2335739135742 3.33180522918701 3.60159039497375 9.80490684509277 4.86655139923096 -0.579010665416718 -0.557238101959229 -0.115364864468575 1.52984213829041 1.18466758728027 1.19283175468445 1.34689259529114 1.28783345222473 1.25134670734406 1.27538299560547 1.15961670875549 1.17376029491425 1.16727256774902 1.21249234676361 1.62253868579865 2.90826940536499 1.25707542896271 3.11122679710388 3.11224365234375 1.21715724468231 6.65513801574707 7.52072429656982 4.25687074661255 3.00622010231018 9.04993629455566 15.621862411499 2.43615937232971 16.5178050994873 38.35791015625 12.7560195922852 0.660412847995758 1.57071995735168 3.99360322952271 4.40861797332764 3.18131184577942 7.53308248519897 18.0731620788574 13.4540348052979 5.15049362182617 5.06468868255615 14.1228532791138 3.90864181518555 4.57905244827271 4.89775037765503 4.7741813659668 5.44386148452759 6.86947917938232 8.29783344268799 10.0828466415405 11.0826768875122 19.8934135437012 10.4905567169189 11.8161010742188 12.6195707321167 15.4371089935303 21.4509258270264 19.8346691131592 44.3278732299805 33.7059936523438 26.2686080932617 29.0366382598877 27.9525413513184 25.0973682403564 15.0944395065308 13.1730308532715 7.77290010452271 5.31596660614014 5.1531925201416 4.81000471115112 5.1989860534668 10.3791379928589 16.7391109466553 29.3225402832031 29.7528705596924 23.3120174407959 27.2074928283691 11.4876823425293 9.19895076751709 2.36028647422791 8.21710395812988 3.74067854881287 3.95711970329285 4.88102579116821 5.51611661911011 4.48958730697632 5.55144596099854 7.83659934997559 8.41670894622803 8.94612598419189 9.15403747558594 9.21517562866211 9.41111373901367 9.65509033203125 9.81551361083984 10.2457008361816 9.37188816070557 8.63719081878662 7.03432559967041 5.56068468093872 4.80766868591309 6.23618650436401 8.24114608764648 10.907320022583 9.13688087463379 7.85847997665405 5.73355579376221 5.46247386932373 5.23327493667603 5.0228328704834 4.69022464752197 4.59155654907227 4.67852735519409 4.35721349716187 3.95488238334656 3.74581289291382 3.06165504455566 1.5882134437561 1.98311793804169 1.86507892608643 1.63218724727631 1.64058840274811 2.08462238311768 1.89399075508118 1.20009982585907 5.33733367919922 6.48185348510742 7.15783739089966 5.95032644271851 7.1553521156311 8.84060001373291 7.60406875610352 14.5703315734863 8.63798809051514 6.52088642120361 7.91860961914062 6.8048095703125 8.64424991607666 10.2811393737793
1.26802897453308 1.64854371547699 1.98205852508545 1.42664659023285 2.57080101966858 1.86199820041656 2.07495927810669 1.37659382820129 1.83762955665588 2.76859283447266 3.44170165061951 2.98723077774048 1.82806742191315 1.80803143978119 1.84042143821716 1.73021030426025 1.7234126329422 1.84753549098969 1.75972998142242 1.90165174007416 2.08202028274536 1.88207423686981 1.87825322151184 2.05948972702026 1.71475565433502 1.48481166362762 -0.832196831703186 -0.732952237129211 -0.687068343162537 13.5023574829102 16.5026245117188 36.4788589477539 38.8577156066895 -0.90901517868042 3.2919487953186 9.32159423828125 3.09318470954895 -0.859473288059235 -0.817738771438599 -0.160138964653015 1.05882036685944 0.0568163804709911 -0.157036527991295 1.16368305683136 1.130246758461 1.20765602588654 1.0630875825882 1.10276520252228 1.04083478450775 1.35767328739166 2.42218995094299 1.15755665302277 2.57915163040161 1.37177801132202 2.92464399337769 2.68361663818359 5.83520841598511 3.39567923545837 2.62781286239624 5.42957353591919 9.55013656616211 21.6342296600342 10.9004831314087 3.18117213249207 16.0951614379883 1.87721884250641 0.825473010540009 2.070885181427 2.03283619880676 2.16977167129517 2.43119597434998 20.7605876922607 14.297947883606 4.8929615020752 4.95347595214844 5.5515923500061 15.004017829895 4.10521125793457 4.45533323287964 4.45364856719971 4.78898525238037 5.22113609313965 4.37419080734253 6.3581337928772 8.74131202697754 10.0809516906738 18.839563369751 19.0274868011475 12.1083669662476 17.9444122314453 15.4774007797241 16.4047718048096 18.4797325134277 28.68430519104 25.6910552978516 22.5237236022949 21.8549213409424 21.5879535675049 24.5502128601074 18.1853427886963 8.33129978179932 11.4442539215088 4.82675504684448 4.94616937637329 4.92192125320435 14.4196128845215 7.59768390655518 11.058051109314 15.8300294876099 18.1697807312012 24.558910369873 25.7192974090576 27.8243808746338 15.0719804763794 8.570631980896 15.7043657302856 18.5541877746582 6.25204420089722 4.75312900543213 14.2706155776978 5.06940889358521 5.42614650726318 6.38839292526245 8.32752704620361 8.53556537628174 8.57399749755859 8.64583206176758 8.99848079681396 9.19860172271729 9.62789440155029 9.08946704864502 8.23348712921143 7.05906343460083 5.4513111114502 4.56188821792603 5.89078664779663 6.23883533477783 9.83015155792236 8.24486923217773 7.55169343948364 6.20369958877563 5.25586891174316 5.04559755325317 4.79750442504883 4.53583860397339 4.21095037460327 3.775958776474 3.82014465332031 3.25259232521057 3.02735352516174 3.47332382202148 3.47615528106689 2.73943591117859 2.00431728363037 1.51454150676727 0.955385565757751 1.4728285074234 1.82147204875946 -0.272608608007431 4.73173904418945 16.5776386260986 6.96567249298096 19.2349510192871 10.5376129150391 9.30419063568115 20.3593196868896 3.10831880569458 7.5043773651123 2.30684995651245 6.96175813674927 6.11035633087158 7.92145013809204 7.58008289337158 9.69738960266113
1.58432602882385 1.89701342582703 1.22561073303223 2.37357997894287 2.15033102035522 1.8766633272171 0.979921281337738 1.39797079563141 1.87933111190796 3.29406881332397 2.86663579940796 1.80303871631622 1.78905057907104 1.8152824640274 1.70096909999847 1.67932736873627 1.8053959608078 1.73166728019714 1.78036570549011 1.75848007202148 2.25752425193787 2.51712155342102 2.08349084854126 1.86370253562927 2.992995262146 48.0200309753418 4.50569534301758 -1.16223013401031 -0.71715921163559 11.1406736373901 3.36426281929016 1.42107963562012 9.74431991577148 -0.293369024991989 -0.566267371177673 -0.191729933023453 8.84214115142822 -0.897636413574219 -0.829024255275726 -0.292614758014679 30.1782989501953 34.7274627685547 1.13006031513214 1.05132782459259 1.10398554801941 1.03081560134888 1.03587508201599 1.02045786380768 1.14650285243988 2.05600237846375 1.07182216644287 2.1203784942627 1.16548323631287 2.37270355224609 1.05396723747253 4.7655611038208 4.94596004486084 2.69025087356567 3.66716504096985 6.74479961395264 2.87424802780151 13.25159740448 3.112389087677 41.3891944885254 24.0994205474854 0.175878182053566 0.768809854984283 1.85948979854584 13.1866998672485 19.2695732116699 11.7373285293579 5.51090240478516 4.53810358047485 4.55713987350464 4.43158674240112 5.01422166824341 3.31644654273987 4.05447101593018 4.40065717697144 4.27102518081665 4.36202907562256 3.59242796897888 4.90757417678833 5.29585361480713 8.3590030670166 9.6404390335083 12.7979068756104 17.1585464477539 13.1012201309204 14.5854654312134 15.7720346450806 14.3015718460083 19.2039337158203 19.8656921386719 20.4041576385498 16.6076316833496 13.5386734008789 17.6430034637451 16.2225685119629 9.22042179107666 8.74491596221924 21.3737678527832 17.1257095336914 10.2970552444458 9.69631195068359 7.37533712387085 15.3148584365845 21.4016704559326 16.7251205444336 17.8127708435059 19.9657096862793 26.5324554443359 26.9170112609863 30.1335029602051 11.3042221069336 11.9276390075684 16.7383975982666 9.38116073608398 4.74766635894775 11.0681400299072 5.00318050384521 5.68222236633301 4.73290157318115 5.41304683685303 8.3837251663208 8.39235305786133 8.37366676330566 8.57897853851318 9.057204246521 8.534255027771 8.29781723022461 6.63142442703247 6.06622934341431 5.120849609375 5.58471059799194 3.92230772972107 8.95217609405518 8.6378231048584 6.80692720413208 5.60771989822388 5.20084047317505 5.13615036010742 4.77451753616333 4.48776531219482 4.07472944259644 3.66294503211975 3.47405505180359 3.74774241447449 2.90197014808655 2.69889569282532 2.72438192367554 2.92004752159119 2.85267281532288 2.70922231674194 1.17130303382874 1.16662490367889 1.24554598331451 17.8052597045898 12.1632223129272 4.56090545654297 16.1437034606934 11.4786195755005 9.84707069396973 8.14544010162354 6.54621839523315 12.926549911499 5.20176124572754 12.6650047302246 3.75868225097656 1.93756675720215 1.95762491226196 6.70855140686035 8.5457878112793 9.05306816101074
1.82715606689453 1.17691278457642 2.26662135124207 2.04311895370483 1.60122668743134 1.78217673301697 0.903424441814423 1.69114303588867 2.56888937950134 3.23089170455933 2.78354787826538 1.7685763835907 1.67466056346893 1.77751493453979 1.65045547485352 1.76811170578003 1.69405949115753 1.76572024822235 1.74252426624298 2.02707171440125 2.2045361995697 2.96474099159241 2.86223101615906 2.84436702728271 2.90986585617065 42.9643745422363 22.7504463195801 -0.831288576126099 -0.676464259624481 1.62674582004547 38.594367980957 39.6345024108887 15.3718328475952 -0.929690778255463 -0.813714683055878 3.05653095245361 9.80818271636963 3.87717461585999 -0.543681979179382 -0.337126672267914 0.0248974114656448 22.837984085083 1.07223522663116 1.04394471645355 0.988253533840179 0.956301212310791 0.92547595500946 0.987075984477997 0.992970287799835 1.88186144828796 0.963898062705994 1.94753527641296 1.86777019500732 0.865075588226318 3.89608526229858 3.99967670440674 2.33059430122375 2.61063408851624 5.03636169433594 2.12291026115417 8.11090660095215 3.09534192085266 13.4149522781372 28.5370197296143 41.7108345031738 17.3561058044434 1.29959952831268 11.6709127426147 22.8834686279297 17.2877197265625 13.6807861328125 16.0526828765869 4.34567880630493 4.00449228286743 4.09784984588623 2.98736071586609 3.86394596099854 4.25623607635498 4.11344003677368 5.23122262954712 3.45036315917969 3.57837843894958 6.16572046279907 6.25372409820557 7.63218450546265 9.86948490142822 10.8657779693604 12.5635538101196 18.0055866241455 15.3859643936157 15.9319858551025 16.7564659118652 27.2910213470459 15.6338682174683 23.6130180358887 34.9261093139648 20.3731651306152 14.4314460754395 12.5082607269287 6.12171459197998 8.10613822937012 17.7431602478027 19.4611377716064 14.1170310974121 7.14412593841553 23.6050758361816 16.3051147460938 18.0589027404785 14.4190454483032 16.7716064453125 21.4602565765381 23.190055847168 23.3909549713135 14.1457509994507 12.6276168823242 4.69528865814209 4.77844858169556 4.53196430206299 5.58120250701904 4.85197162628174 5.30902194976807 23.443286895752 10.1561794281006 5.8328218460083 5.42064952850342 7.81990098953247 8.16842079162598 8.4949312210083 8.20631980895996 7.79453754425049 6.24616193771362 5.76876258850098 4.87928056716919 4.22267961502075 5.42076587677002 6.34991264343262 8.52421760559082 7.13891792297363 5.65701055526733 5.0012264251709 4.94056749343872 4.5925498008728 4.32045221328735 4.27436685562134 3.53874087333679 3.35814189910889 3.63127708435059 2.83539891242981 2.11847734451294 2.14700698852539 2.03945183753967 1.98136281967163 1.66215753555298 1.54544293880463 1.03241682052612 0.906686544418335 0.936018764972687 10.172191619873 4.2959041595459 5.80125761032104 6.79921007156372 12.7367467880249 6.07035350799561 12.4758901596069 7.42920970916748 13.9836702346802 1.99424743652344 1.80756604671478 10.7589464187622 2.99714517593384 2.61012315750122 4.47844171524048 6.90999317169189 8.15493583679199
1.12425875663757 1.24236261844635 0.575400054454803 1.57832515239716 1.67227935791016 0.764024138450623 1.16885912418365 2.34726715087891 3.00009560585022 2.70888447761536 1.74891400337219 1.66267740726471 1.76651275157928 1.64944875240326 1.62821698188782 1.72750127315521 1.66738879680634 1.74715733528137 2.01745748519897 1.81421005725861 1.91357803344727 2.49756026268005 3.36520838737488 3.04077291488647 24.5425357818604 41.2977256774902 15.113899230957 -0.710778951644897 -0.565645158290863 1.42240571975708 25.8944931030273 28.0415153503418 45.5069351196289 29.6254177093506 20.2524585723877 6.43868350982666 -1.0146769285202 -0.921940743923187 -0.42388129234314 -0.568553328514099 -0.757271111011505 0.992616415023804 0.956608176231384 0.933787703514099 0.905641257762909 0.880619049072266 0.803780019283295 0.930408596992493 1.57096540927887 0.538501739501953 1.61721384525299 1.00688207149506 1.73467981815338 3.06698369979858 3.12253260612488 2.02152538299561 1.43693351745605 1.99271202087402 4.17599296569824 5.51079130172729 4.9786376953125 10.4817447662354 18.7062740325928 34.2230377197266 33.0487442016602 21.8468246459961 2.51025819778442 3.86880970001221 9.33568382263184 5.74297142028809 8.1509895324707 16.5409698486328 4.1853199005127 3.31791877746582 20.3726959228516 3.30236220359802 4.13311862945557 3.95973014831543 3.97474670410156 20.0564422607422 4.92460870742798 3.78983163833618 11.0485620498657 8.99947834014893 8.55349349975586 9.69540596008301 10.6113910675049 13.3046188354492 14.3971891403198 19.0445518493652 14.7437648773193 16.8398685455322 16.9348812103271 17.8282508850098 24.1999969482422 25.2062110900879 15.0876722335815 19.833101272583 11.663293838501 16.5735130310059 14.9557037353516 13.0162410736084 7.7117805480957 20.6968688964844 20.2475700378418 10.9344234466553 9.54818153381348 10.8094606399536 13.376745223999 17.1673698425293 15.8049144744873 15.885106086731 12.3585338592529 7.42027950286865 19.3579082489014 11.9409084320068 23.7513561248779 4.62912654876709 4.53150653839111 4.48143625259399 4.9628210067749 6.74758625030518 9.63544750213623 5.04951047897339 5.50884962081909 5.33118915557861 7.81757402420044 8.28225612640381 7.60833930969238 7.02901601791382 5.69920969009399 4.70282649993896 4.03391695022583 5.16079092025757 4.82513427734375 7.85586833953857 6.59269332885742 5.90676975250244 4.83126783370972 4.75942611694336 4.48999118804932 4.21503067016602 4.1001501083374 3.8467812538147 3.2357497215271 3.49600625038147 2.72792100906372 1.93413829803467 1.77205371856689 1.61001181602478 1.92979371547699 1.78053295612335 1.49191737174988 0.891313910484314 1.01075541973114 0.919351935386658 6.35865545272827 8.64033126831055 3.6325900554657 4.30014801025391 5.52053880691528 9.35076141357422 11.4710559844971 9.51562309265137 4.9527702331543 11.6779909133911 19.6273880004883 2.15826392173767 4.80324506759644 2.25379467010498 4.18242454528809 4.24154329299927 3.13629746437073 3.16787838935852
1.19486391544342 31.6704711914062 0.0213975422084332 2.1275646686554 -0.63093227148056 1.08424389362335 1.43920600414276 2.73003768920898 2.44946765899658 1.21616661548615 1.81235802173615 1.76348090171814 1.64711701869965 1.6651017665863 1.72660422325134 1.64528965950012 1.71054208278656 1.71306872367859 2.09249091148376 1.86309194564819 1.84851551055908 2.07818675041199 3.23569202423096 19.1518630981445 21.2745018005371 41.0223426818848 22.0600814819336 4.57050180435181 -0.646281540393829 13.833740234375 16.5098247528076 17.8861827850342 32.4094619750977 11.6374578475952 28.1749744415283 28.1760101318359 6.12455415725708 -0.614275515079498 7.74426794052124 14.4323196411133 -0.313057780265808 0.888149201869965 0.827573835849762 0.808613717556 0.836560964584351 0.758934378623962 0.875829994678497 1.40225529670715 0.460216343402863 1.32383418083191 0.891348242759705 1.40678477287292 0.839697659015656 2.74941611289978 1.58901250362396 1.67621374130249 1.56410241127014 3.14936828613281 3.89512324333191 3.8798234462738 2.72878003120422 14.09987449646 19.9642601013184 30.6409282684326 28.5673370361328 26.5375385284424 1.92637300491333 2.34949207305908 6.45364809036255 4.36888551712036 4.38813591003418 16.4935111999512 2.62001657485962 3.70153641700745 8.11597347259521 3.25122427940369 3.88811326026917 3.85943555831909 3.78810238838196 13.3099126815796 8.98233699798584 4.79782867431641 8.04448127746582 7.62448024749756 8.78646659851074 9.63529872894287 10.7063684463501 12.3889665603638 13.3925790786743 14.1704759597778 16.1992282867432 18.199275970459 20.88596534729 18.0380592346191 18.3038291931152 16.5338115692139 18.4339618682861 33.7569198608398 22.3864421844482 13.7497749328613 16.8791942596436 19.1924076080322 17.9617519378662 12.08021068573 9.35053634643555 8.34914684295654 9.3162841796875 15.5922498703003 15.5281543731689 13.6127529144287 13.3135032653809 9.56787872314453 10.7338924407959 7.99608612060547 13.9829902648926 7.88628387451172 16.4377365112305 21.8082885742188 21.1949024200439 10.2339735031128 15.948938369751 5.3688268661499 20.2307300567627 5.14138650894165 4.50605821609497 5.27909851074219 7.76942539215088 7.34683895111084 6.68440198898315 5.74433565139771 5.35590982437134 4.53453683853149 4.92378616333008 3.62187695503235 7.30729007720947 6.75802946090698 5.43018293380737 4.63872528076172 4.59683275222778 4.40665245056152 4.20141124725342 3.94124412536621 3.70599722862244 3.32080173492432 3.35817790031433 2.4660267829895 2.63611173629761 1.73544430732727 1.60549974441528 1.50605797767639 1.87221157550812 0.468583017587662 0.76760858297348 0.87082451581955 0.808359742164612 4.64404535293579 3.35289835929871 31.3647804260254 2.59506487846375 3.06880331039429 4.71546030044556 10.8730640411377 7.41027498245239 12.9116678237915 6.53666400909424 0.796280086040497 0.78315144777298 0.808373749256134 1.07603526115417 1.86029696464539 2.01524543762207 2.95043683052063 3.0672082901001 3.3665976524353
2.06453728675842 31.8079090118408 0.347670197486877 29.0023765563965 -0.265593826770782 1.41375780105591 2.0790548324585 2.61735892295837 2.33245134353638 1.11887109279633 1.73040127754211 2.00610208511353 1.62225234508514 1.72708415985107 1.7282475233078 1.69043791294098 1.67985904216766 1.96866810321808 1.83462166786194 1.83117079734802 1.84048676490784 2.47898602485657 15.7013101577759 16.646448135376 21.1873455047607 37.1197052001953 43.6978569030762 42.3231430053711 19.2698593139648 11.1730451583862 10.3634271621704 21.0036926269531 8.74666404724121 16.6181621551514 25.5448207855225 32.3837623596191 12.4056510925293 -0.490236192941666 1.41997146606445 6.83953905105591 -0.542973041534424 0.813018023967743 0.689575493335724 0.520732522010803 0.347770750522614 -0.988939106464386 1.18805682659149 0.333821505308151 1.10527193546295 0.783336520195007 1.11323773860931 0.522616922855377 2.16442656517029 2.06889295578003 1.32792389392853 1.26327812671661 2.31086730957031 1.59420943260193 3.05443835258484 1.9953145980835 10.0542001724243 15.3544540405273 23.1670074462891 18.4104022979736 20.1855430603027 32.0654029846191 13.5486726760864 1.55382299423218 3.61221361160278 4.12224340438843 4.77830505371094 27.2662715911865 3.14622569084167 4.94888257980347 7.24778032302856 3.00727343559265 3.76888704299927 3.67141318321228 8.49307918548584 12.2149934768677 11.4934186935425 5.33999443054199 6.19916105270386 7.67434406280518 8.4519157409668 9.65051651000977 11.1458415985107 12.0738763809204 12.7237586975098 14.4389162063599 14.9267530441284 14.8557043075562 14.6166286468506 16.3932495117188 15.4338445663452 11.2076692581177 11.1291313171387 18.554744720459 13.5841474533081 13.9215669631958 17.9861373901367 20.4408569335938 8.75024509429932 8.12142181396484 8.85593414306641 8.0697546005249 8.65951442718506 10.8080463409424 10.36887550354 10.0809011459351 8.23070240020752 4.60161066055298 7.3211030960083 10.5992050170898 6.01367568969727 11.8672323226929 15.1127147674561 17.448751449585 10.5277414321899 7.22140789031982 11.7683334350586 5.48120784759521 9.40227794647217 25.1856422424316 8.31589889526367 5.02271556854248 4.9551420211792 6.71620607376099 5.44397449493408 5.11977338790894 4.34197902679443 3.76712560653687 4.78842735290527 6.80876731872559 6.22350311279297 5.04475450515747 4.45837926864624 4.53614854812622 4.47982215881348 4.16147518157959 3.93705320358276 3.58137249946594 3.20285367965698 3.03588557243347 3.25928092002869 2.5261492729187 1.7432199716568 1.491858959198 1.42120707035065 1.75006496906281 25.1606884002686 -0.433174908161163 -0.928987681865692 -0.811582505702972 -1.17765653133392 -2.12611508369446 4.01455402374268 38.9117965698242 30.9870777130127 19.8451766967773 6.97624540328979 5.76089763641357 1.04880392551422 2.94869232177734 -0.38327631354332 -0.0350714772939682 0.470844864845276 0.81532096862793 0.976968944072723 1.06481122970581 1.26960349082947 2.14715957641602 3.2257616519928 14.1729211807251
0.427437782287598 24.4945507049561 1.64909505844116 2.73583936691284 0.925117135047913 1.53039169311523 2.52728629112244 2.1814272403717 0.96014016866684 1.09389042854309 1.61222398281097 1.9185174703598 1.71229934692383 1.64645218849182 1.70529818534851 1.67255306243896 1.9329526424408 1.75016582012177 1.6373291015625 1.81375670433044 2.04071664810181 2.3486156463623 14.0052614212036 17.4863357543945 20.5949573516846 26.1085033416748 31.3972949981689 30.1748542785645 9.70729351043701 10.1667995452881 15.1204948425293 25.5233383178711 9.63217735290527 15.2016344070435 21.9508743286133 33.4497718811035 22.2170162200928 3.58434534072876 3.81863117218018 24.1934185028076 -0.373508602380753 3.26501965522766 2.58086276054382 -0.457125276327133 35.6501579284668 -1.87022936344147 -1.24614632129669 0.308676689863205 0.969233155250549 0.864021182060242 0.408889502286911 1.6571432352066 1.37944054603577 0.937499344348907 0.918452382087708 1.66187047958374 1.44894778728485 2.36457133293152 1.42332637310028 5.56845712661743 10.0412731170654 18.252420425415 14.7025947570801 14.9874935150146 14.0549793243408 22.7367630004883 33.1180381774902 2.84938621520996 3.61282229423523 4.14365816116333 5.96590328216553 23.094274520874 4.68720436096191 3.03082036972046 20.2990970611572 2.97114300727844 2.91628813743591 6.13751745223999 5.36112356185913 8.44493579864502 16.676815032959 11.5544481277466 7.00687789916992 7.83574628829956 8.42665386199951 10.0956840515137 10.9704561233521 11.5615882873535 12.0127811431885 13.5259742736816 13.2361860275269 13.1200170516968 13.1553831100464 13.4327278137207 22.594705581665 12.7492256164551 10.5662937164307 7.41593885421753 12.5568208694458 15.8900203704834 14.0919160842896 6.99196815490723 7.53682136535645 8.90116596221924 18.6292991638184 19.0575199127197 11.0994024276733 16.071361541748 10.1372079849243 8.19108295440674 4.73558616638184 5.95682144165039 8.97916889190674 15.2182140350342 11.5188493728638 13.1084794998169 17.5800819396973 29.1063442230225 17.0107574462891 14.2965888977051 8.49659633636475 15.1627769470215 16.1338691711426 12.7816390991211 22.0702533721924 11.7590303421021 5.17217922210693 4.98290967941284 4.8587121963501 4.15181255340576 3.60775351524353 4.58205556869507 4.82915163040161 6.54505634307861 5.47992944717407 4.31922340393066 4.38564395904541 4.32404232025146 4.09237909317017 3.80538630485535 3.69604802131653 3.4936785697937 2.92370843887329 3.12908840179443 2.41588258743286 1.65883004665375 1.4689359664917 1.31125152111053 1.59016716480255 1.47605288028717 33.7355270385742 13.8520822525024 -1.00262904167175 0.552261829376221 13.6851577758789 0.581192791461945 3.23229694366455 16.3505687713623 11.7208690643311 8.80127143859863 5.35093450546265 3.37416005134583 1.68080043792725 -0.0919669419527054 -0.694979906082153 -1.11687135696411 1.71667635440826 2.19932198524475 0.382091611623764 -0.651185572147369 -0.210122391581535 1.76862692832947 1.80824017524719 7.99976444244385
12.4370565414429 10.2393617630005 28.75657081604 20.4068756103516 1.46248519420624 2.13583445549011 2.16971635818481 0.919642627239227 0.977859735488892 1.0991005897522 1.3140994310379 1.57691037654877 1.45605993270874 1.48886549472809 1.74875473976135 1.93102610111237 1.7290096282959 1.61506032943726 1.79783868789673 1.75725126266479 1.98142683506012 12.0074663162231 12.8843183517456 15.8274841308594 19.5188884735107 22.2901039123535 22.072078704834 9.27401638031006 8.9935131072998 12.3644771575928 11.1019449234009 17.6309604644775 10.9285669326782 16.2114181518555 19.6644039154053 23.3316745758057 24.3003368377686 39.5722770690918 16.072847366333 12.0588817596436 0.0922454968094826 5.79027509689331 8.9497709274292 0.875648140907288 39.3595352172852 -1.86820352077484 0.0232613235712051 0.740387678146362 0.631341814994812 0.719589173793793 0.53390246629715 1.24882280826569 0.427198708057404 0.644291818141937 1.11450159549713 1.23984611034393 1.39713084697723 0.67527973651886 4.61425304412842 8.43149852752686 10.6850748062134 15.7283630371094 12.61106300354 10.5780897140503 14.9802846908569 7.57031011581421 5.61403322219849 2.58874201774597 3.87180924415588 4.06425809860229 11.2801380157471 16.1565189361572 3.00126075744629 2.59213542938232 8.09381294250488 13.1067895889282 3.32140421867371 4.08785963058472 6.19243192672729 5.58522796630859 11.071720123291 7.4840784072876 7.28762865066528 7.80500411987305 8.63949871063232 9.60917472839355 10.4172468185425 10.9816150665283 12.2120428085327 12.2900695800781 12.1214742660522 12.0455341339111 12.3228187561035 11.478325843811 15.3281831741333 15.1330757141113 19.6512908935547 11.5517330169678 9.17071342468262 6.81499624252319 5.51960563659668 5.26783037185669 6.77162599563599 8.06513023376465 8.76437854766846 19.1616878509521 11.7388153076172 13.2228412628174 10.8092088699341 22.4023189544678 10.0820436477661 10.3628835678101 9.63676738739014 20.6630554199219 15.6599578857422 13.3936634063721 14.506010055542 22.6665706634521 19.163257598877 22.64967918396 17.7504692077637 18.1141586303711 26.0293292999268 14.7019443511963 21.4947319030762 19.5294170379639 4.70287895202637 3.74941754341125 3.17048740386963 3.41249799728394 4.38087797164917 3.65998649597168 6.15639638900757 5.13592672348022 4.50401210784912 4.25129222869873 4.2032413482666 4.01051235198975 3.80002164840698 3.53016471862793 3.3451292514801 2.97840642929077 2.98939490318298 2.17077302932739 2.30165958404541 1.44217467308044 1.28635156154633 1.15877878665924 1.44371318817139 7.68848609924316 25.4646892547607 36.0331993103027 22.1027812957764 5.29486846923828 7.27912092208862 0.998925566673279 1.66168189048767 4.14993810653687 3.77367806434631 4.28684520721436 2.79693841934204 -0.48518031835556 0.361221820116043 -1.01412963867188 -0.898741960525513 -1.19649767875671 -1.88279390335083 -1.86201417446136 4.86389923095703 -0.510507762432098 0.146764293313026 0.730040490627289 1.80385732650757 7.42468357086182
9.69530010223389 8.36110782623291 18.681468963623 3.83891606330872 8.373948097229 0.826645493507385 -0.461730062961578 1.61439311504364 1.03408658504486 1.1790908575058 1.21485102176666 1.17847585678101 1.15587174892426 1.25557470321655 1.52485609054565 1.77261006832123 2.0630784034729 1.9999760389328 1.83221685886383 2.08166766166687 10.5522623062134 10.3715801239014 13.4599342346191 15.8966970443726 17.3325309753418 17.5333843231201 8.76122951507568 8.70190048217773 4.97460651397705 9.29320335388184 12.3530769348145 12.4587669372559 12.7459325790405 14.4308986663818 15.0012836456299 20.6943302154541 27.878589630127 17.7950553894043 10.3965501785278 19.8363628387451 2.19761848449707 6.03364038467407 11.2248277664185 1.84327387809753 1.9900119304657 15.8187170028687 0.0615507364273071 0.420835018157959 0.495305925607681 0.247559159994125 1.10796105861664 0.708850502967834 0.320073336362839 0.625585496425629 1.06112337112427 0.822356045246124 18.068244934082 2.10985064506531 6.69455909729004 9.04552936553955 13.0316905975342 10.3926410675049 1.14429378509521 1.61614584922791 1.43376529216766 1.01329350471497 1.52949643135071 2.41917490959167 3.77509689331055 6.76244163513184 9.06746578216553 2.33984732627869 2.70982003211975 2.32902884483337 2.14277982711792 14.4036474227905 4.54140090942383 2.90013360977173 4.63555574417114 6.82391834259033 5.9687294960022 6.73516416549683 7.11609172821045 7.58444499969482 8.79684638977051 9.57685375213623 10.1012592315674 11.0927762985229 11.0626564025879 10.9380302429199 10.8219470977783 11.0647773742676 10.7696580886841 10.7476654052734 9.53929042816162 11.1192054748535 14.3965539932251 16.6348133087158 21.9006671905518 20.053295135498 19.506986618042 11.6474390029907 5.94071245193481 7.28789567947388 12.3166341781616 13.206109046936 19.7489852905273 17.2411308288574 11.4384126663208 20.872631072998 17.1745986938477 12.5244369506836 12.3293504714966 10.8663959503174 11.4971237182617 11.6429443359375 13.9772777557373 12.6302394866943 10.8838863372803 14.3032712936401 11.5230293273926 13.5877075195312 15.8429832458496 13.2670192718506 11.0463676452637 4.19096279144287 3.26300024986267 2.8857147693634 2.20437264442444 2.82172870635986 3.08232855796814 5.78167676925659 5.12759828567505 4.20917558670044 4.08984994888306 4.14963102340698 4.08163118362427 3.74978923797607 3.48600554466248 3.19284653663635 2.80903220176697 2.65598225593567 2.85086631774902 2.17862749099731 1.44085097312927 1.19983339309692 1.07060110569 1.35148692131042 4.79549264907837 11.432505607605 13.9698352813721 13.1779413223267 10.8424377441406 -2.28659081459045 -1.10927617549896 0.841734290122986 1.86002671718597 1.94623625278473 3.14188957214355 2.06635141372681 -0.750238060951233 -0.650150716304779 -2.5500500202179 -2.58087253570557 -1.54834449291229 -2.21540570259094 -2.41526436805725 -1.76170349121094 -2.62771439552307 -2.67765426635742 -1.21882712841034 -0.0576796680688858 0.80405330657959 1.72076809406281
5.40159320831299 10.5902519226074 8.15552139282227 8.78339385986328 28.7113628387451 29.2246990203857 2.75208950042725 3.07935786247253 1.73968088626862 1.19704103469849 1.12510538101196 1.13251423835754 1.1349173784256 1.41757559776306 1.42441296577454 1.36318862438202 1.87079453468323 2.00162577629089 1.99234294891357 3.81761693954468 3.09286570549011 11.8385610580444 12.0297403335571 14.2110090255737 14.355263710022 9.62875461578369 8.27680969238281 18.1173858642578 15.7364387512207 9.65048217773438 8.75265121459961 8.13808345794678 11.59947681427 11.3352537155151 12.7183952331543 18.1906871795654 19.7971935272217 19.3331050872803 18.7422676086426 11.7757759094238 3.40234613418579 6.20421838760376 41.5504875183105 42.5574188232422 9.12565231323242 2.36277508735657 0.300819844007492 0.105017334222794 0.0541158951818943 0.854963362216949 0.644178092479706 1.94773268699646 0.419517070055008 0.822639405727386 2.55227255821228 1.10397017002106 10.3504705429077 4.55388021469116 7.75827598571777 11.0388927459717 8.75600051879883 1.01010727882385 1.03654897212982 1.45343697071075 3.31812310218811 1.00228178501129 1.48368465900421 1.86642742156982 4.36273765563965 5.27268314361572 24.8797550201416 1.76720285415649 1.88440573215485 1.83990335464478 1.5587569475174 1.56081223487854 1.80969655513763 3.39070343971252 4.3335337638855 4.923499584198 5.27108573913574 5.53327894210815 5.82499837875366 6.81259250640869 8.82639980316162 9.36502265930176 9.48358345031738 10.5225200653076 10.2661190032959 10.5459794998169 10.2587289810181 9.65385818481445 9.2400016784668 8.05553531646729 8.99354076385498 9.88624668121338 9.66962432861328 12.4695272445679 12.9702415466309 11.4300127029419 10.7610530853271 20.2820091247559 16.1856517791748 8.33474159240723 7.82603979110718 8.63893890380859 9.09040832519531 9.16418743133545 12.6896438598633 20.1150436401367 13.2409954071045 9.23646545410156 8.51292133331299 10.3972463607788 9.85315418243408 10.3197946548462 9.82997989654541 8.98898315429688 7.64846229553223 8.68594360351562 10.5127201080322 10.4881401062012 9.7311372756958 5.75129318237305 4.32613754272461 3.23637819290161 2.66949367523193 1.93888020515442 1.65646183490753 2.50867915153503 3.53691577911377 4.65907764434814 3.84474396705627 3.94799852371216 3.99853324890137 3.92812323570251 3.61571550369263 3.35286998748779 3.24816226959229 2.68830227851868 2.51990246772766 2.67847633361816 2.04663395881653 1.33375990390778 1.14107239246368 0.979086637496948 1.25597536563873 3.48003602027893 7.84028816223145 3.77086091041565 7.12990045547485 6.24060726165771 0.912690460681915 -1.37443733215332 0.505356192588806 0.241877764463425 0.368168264627457 0.918507039546967 0.687667012214661 -1.69250190258026 -1.59484350681305 -3.12544775009155 -3.36158323287964 -2.25374841690063 -2.93400597572327 2.41953682899475 -2.85916233062744 -3.17161536216736 20.9829921722412 17.8831443786621 -1.05021643638611 -1.85138761997223 -0.157855242490768 -0.271103858947754
6.80305624008179 2.33911037445068 5.07496023178101 3.30176758766174 20.074951171875 20.1603622436523 2.02037239074707 2.35940146446228 1.19279551506042 1.07974743843079 1.03841376304626 1.08741819858551 1.08528137207031 1.15004670619965 1.27907371520996 -0.786079227924347 1.59853553771973 1.80968153476715 40.3975868225098 2.30444717407227 5.81368207931519 10.6023950576782 12.2380743026733 12.5489025115967 12.8242139816284 7.41635370254517 7.88188028335571 12.9878005981445 11.5376415252686 7.87624788284302 7.22123146057129 10.1077737808228 10.4792947769165 9.97700214385986 13.0027561187744 13.6826810836792 12.9466371536255 14.6803798675537 7.59419059753418 2.66046929359436 4.84759044647217 12.671516418457 30.1195220947266 37.8659362792969 7.48241090774536 5.17205715179443 2.53784871101379 0.014691149815917 0.642651200294495 0.434601873159409 0.345877945423126 1.15513026714325 0.760934472084045 0.784115552902222 0.633346736431122 6.01822328567505 3.22538256645203 6.22622585296631 9.76504993438721 7.6384539604187 9.02173805236816 0.973592340946198 1.05148637294769 0.890677750110626 3.20269751548767 1.17805147171021 2.08130884170532 1.58843743801117 1.06006920337677 1.65579462051392 1.44326508045197 1.48858726024628 1.75145924091339 1.2449734210968 0.969479084014893 4.2833776473999 2.24596834182739 2.51897644996643 3.03689217567444 4.17224407196045 4.81888723373413 5.44830846786499 6.24395227432251 7.16074228286743 8.71376323699951 8.77579975128174 9.68494319915771 9.54681015014648 9.57413101196289 9.66064071655273 9.88110542297363 8.76496505737305 8.01820087432861 7.32603979110718 7.19158935546875 8.65093040466309 9.09846782684326 9.88609218597412 8.27262210845947 7.74895572662354 6.72838878631592 13.2339992523193 11.7110662460327 21.4179801940918 8.29300308227539 8.18059825897217 7.86668109893799 12.3365116119385 11.9072132110596 7.03906726837158 9.01403331756592 7.786545753479 4.33710145950317 4.35752964019775 4.44430303573608 5.52485466003418 8.4777717590332 14.2985820770264 7.85382270812988 7.15462827682495 8.64096260070801 7.44870758056641 14.3943138122559 15.613844871521 10.8356370925903 15.0719013214111 14.5330572128296 12.203311920166 2.36705088615417 1.96946334838867 3.18742990493774 4.27295351028442 3.79517650604248 3.83135271072388 3.75998735427856 3.45175743103027 3.20985865592957 3.10659432411194 2.56793069839478 2.4044361114502 2.55770802497864 1.93004250526428 1.23384273052216 1.05670535564423 0.901336133480072 1.15594971179962 0.335884213447571 5.87603139877319 18.2258529663086 2.28496098518372 1.84597587585449 20.4936084747314 -1.97555577754974 0.0541778765618801 -0.900839030742645 -0.479557871818542 -0.814007103443146 -0.449081361293793 -1.09276497364044 -2.60524201393127 -3.21574211120605 -3.7529468536377 -3.77565312385559 -3.83725929260254 -2.73967051506042 -3.67930340766907 18.1669483184814 6.01846599578857 5.50373125076294 7.56629657745361 -2.46663451194763 -1.10693383216858 -0.615581512451172 -0.235912621021271
5.46726608276367 2.58961653709412 2.0911693572998 11.6790266036987 11.8862390518188 1.19893848896027 1.51568615436554 1.10630893707275 1.06322991847992 1.02223944664001 1.01267170906067 1.04341459274292 1.07243871688843 1.1940484046936 13.2263879776001 -0.695385158061981 -1.11163187026978 -1.71554863452911 0.967970073223114 -0.0702665746212006 3.13640570640564 4.04311370849609 10.8328762054443 11.0794153213501 6.87374544143677 7.2631459236145 9.21331596374512 8.82071781158447 7.81833219528198 6.54890823364258 8.98560237884521 9.1038236618042 8.43426513671875 10.5096378326416 10.6328582763672 9.35808753967285 9.80129241943359 5.59388494491577 2.1816873550415 3.8939995765686 4.81213569641113 20.300609588623 23.1460361480713 27.1615791320801 6.23308420181274 4.11699295043945 1.91316795349121 0.290357947349548 0.627839326858521 0.282359331846237 0.378637760877609 0.735169947147369 0.95002555847168 0.615363955497742 3.61674118041992 0.683982253074646 4.45164251327515 6.54743623733521 6.8550763130188 5.06393814086914 6.02482509613037 1.3985983133316 13.1227293014526 13.256721496582 16.6212177276611 1.61913192272186 1.29695188999176 0.583049058914185 1.24654138088226 3.9844970703125 1.34220123291016 1.09206116199493 1.25109505653381 0.900801181793213 1.05976665019989 1.67663419246674 5.75629472732544 2.50667428970337 3.12807178497314 3.95187401771545 4.28954267501831 5.53696060180664 5.44557237625122 6.62070417404175 8.44123268127441 8.96809577941895 8.9508752822876 8.98731422424316 8.87851619720459 9.13911437988281 8.72684383392334 8.38615894317627 6.81321573257446 6.58420276641846 7.5119686126709 8.14660263061523 7.32801723480225 6.67688369750977 6.24848461151123 6.0729660987854 9.24777507781982 7.3543701171875 8.30964088439941 13.2348928451538 12.9740800857544 8.6126070022583 9.32106781005859 8.69890880584717 12.3688344955444 5.79130601882935 5.36409711837769 4.1422290802002 4.15064764022827 4.22940111160278 3.95112109184265 4.35927391052246 5.08974599838257 9.16796875 13.9814958572388 8.11774158477783 5.0250039100647 4.66396141052246 5.03149127960205 9.61565971374512 11.4222393035889 11.8223104476929 12.4996938705444 19.113597869873 13.0298748016357 2.52075219154358 2.26967644691467 1.99757492542267 3.6488881111145 3.59489512443542 3.28505253791809 3.03590941429138 2.93720889091492 2.14170432090759 2.01421475410461 2.43528342247009 1.6034414768219 1.15625 0.973802626132965 0.784868597984314 0.298389554023743 0.269718408584595 1.69795846939087 4.53364515304565 -0.765839278697968 0.350432693958282 4.9154257774353 39.8789100646973 6.17441654205322 -1.20300698280334 -1.58101081848145 -1.84449088573456 -0.720035493373871 -1.42331743240356 -2.9860405921936 -3.34563565254211 -4.02086400985718 -4.35856294631958 0.0637400671839714 -4.63876295089722 6.72903776168823 5.74760293960571 6.32922077178955 10.2469100952148 9.4352855682373 12.1520843505859 5.06069755554199 5.61117696762085 -0.852673649787903 -0.0187391303479671
1.89045488834381 1.94949018955231 7.9442663192749 8.1799783706665 0.871480822563171 0.947603464126587 1.0580917596817 1.33870589733124 1.00736367702484 0.98041558265686 1.00478291511536 1.03389155864716 -1.43680012226105 -1.23381078243256 -1.73090207576752 9.29837322235107 7.32797431945801 19.9365234375 4.69515943527222 1.72540354728699 2.39261555671692 3.89371800422668 9.7890567779541 6.37238311767578 6.75186920166016 7.04246711730957 8.30240058898926 7.50198221206665 6.21444368362427 8.20018863677979 8.16978073120117 7.52272033691406 7.9833812713623 9.58697414398193 9.69210624694824 8.1680850982666 6.7475004196167 1.26927018165588 2.08471918106079 3.86075830459595 15.0812425613403 17.3640880584717 18.2727947235107 5.28523826599121 5.63548755645752 4.38334941864014 1.56877827644348 0.640532851219177 0.339851886034012 0.256837487220764 0.442403942346573 0.730399966239929 0.774287700653076 2.95117664337158 0.643550872802734 -0.693634271621704 5.918297290802 5.59293174743652 2.57986450195312 12.4216823577881 11.6223011016846 7.50035619735718 5.90554285049438 13.4999876022339 7.04473638534546 9.07307815551758 14.2498741149902 1.22332501411438 0.796791017055511 0.953122794628143 2.71988344192505 1.42475605010986 8.08000373840332 0.873674035072327 1.24355721473694 4.59992361068726 11.3543033599854 2.98043274879456 3.27473783493042 3.65978264808655 4.03197956085205 4.68259906768799 4.91297817230225 6.55967473983765 8.46582317352295 8.13405227661133 8.09734535217285 7.95596408843994 8.2817268371582 8.01998615264893 7.70385074615479 6.41919422149658 6.36244487762451 6.78515863418579 7.29687595367432 6.65676879882812 6.00824069976807 5.21398210525513 5.80646753311157 7.26281547546387 6.75340414047241 7.8688907623291 9.69157314300537 11.1815166473389 9.69548797607422 7.4686279296875 8.30775260925293 6.97754192352295 9.72412300109863 4.56775999069214 19.3802433013916 4.0857138633728 4.28599071502686 3.79658198356628 4.1317253112793 4.07177114486694 5.00762701034546 6.90748977661133 7.68454742431641 11.4429655075073 20.5346202850342 4.39158773422241 5.52996158599854 5.94904088973999 9.67254447937012 8.30945491790771 9.64989757537842 14.3066806793213 2.37398600578308 4.27499198913574 1.63516640663147 1.95607757568359 1.98590075969696 3.03734111785889 2.86462712287903 2.77329039573669 1.99961304664612 1.88056135177612 1.73909175395966 1.23810863494873 0.803003311157227 0.903716266155243 0.714767277240753 0.296544641256332 0.110579371452332 1.33067691326141 3.4237494468689 27.1514377593994 17.1480464935303 -1.33951485157013 8.65148067474365 25.2495937347412 20.611421585083 9.0679817199707 -1.96679830551147 -1.92156779766083 -2.03014588356018 -3.41158509254456 -3.64124488830566 -4.51195812225342 -5.01792812347412 -4.84489488601685 7.15678739547729 0.69715404510498 -3.55082988739014 3.50865292549133 1.94021856784821 2.53052639961243 3.46337056159973 14.0860414505005 -1.48654663562775 -1.07889997959137 -1.43981981277466 -0.665392816066742
1.9036660194397 6.04368019104004 6.1239652633667 0.769668638706207 0.856913626194 0.95845752954483 1.12792098522186 1.10620534420013 0.962125957012177 0.988032400608063 0.986381530761719 -1.64596247673035 -1.50454819202423 3.50312232971191 -1.36519157886505 -1.23458623886108 7.02144527435303 15.940393447876 25.5849590301514 1.03169012069702 1.90675485134125 2.00385165214539 6.34731435775757 5.99528312683105 6.4356746673584 7.59480381011963 6.87103509902954 5.74629974365234 5.93386173248291 7.7861795425415 7.53836870193481 7.18069696426392 8.34614562988281 8.45029830932617 7.27703428268433 6.21142435073853 3.90234875679016 1.79892575740814 2.98293304443359 11.9390478134155 13.8000593185425 13.5520610809326 4.07951259613037 3.98077368736267 4.23025131225586 3.98693871498108 2.98564529418945 -1.45762944221497 -1.51207566261292 0.718636989593506 0.698751211166382 0.736520230770111 0.599268198013306 -1.0692822933197 7.04338073730469 3.04519081115723 5.5029182434082 3.60838723182678 5.06067848205566 7.05124568939209 6.62721014022827 0.433899730443954 7.61350393295288 3.46921682357788 1.41774702072144 6.22229194641113 7.74987602233887 1.99515604972839 9.22144317626953 2.26915144920349 1.32328069210052 0.593528747558594 8.36751556396484 0.641201674938202 1.32163619995117 2.25728821754456 2.43521332740784 2.73254156112671 2.80484819412231 3.13062453269958 3.81334948539734 4.77600860595703 5.45980453491211 6.06591796875 7.7614631652832 7.78634309768677 7.75843667984009 7.56810617446899 7.36640119552612 7.04586553573608 5.89208936691284 5.81878614425659 5.74205350875854 6.55963182449341 6.89933919906616 5.89996242523193 5.08327531814575 5.16755962371826 5.87398386001587 6.31869506835938 7.28936529159546 7.59184169769287 8.02835273742676 7.73901891708374 7.21660900115967 6.97412919998169 6.07109594345093 4.86698150634766 4.55884027481079 4.82799386978149 9.81122875213623 5.21342134475708 4.15337038040161 3.59317922592163 5.94763565063477 4.03923463821411 4.02036333084106 7.05489826202393 5.37333536148071 4.99510812759399 17.5963325500488 4.29891061782837 3.04929900169373 2.59263920783997 2.36357855796814 3.26260113716125 4.19562101364136 0.928897619247437 3.9500207901001 3.83572149276733 1.58455765247345 1.96892750263214 1.52504408359528 1.46290826797485 2.56081199645996 1.87520492076874 1.01560473442078 1.30619037151337 1.12601959705353 0.581969499588013 0.47149595618248 0.368292152881622 0.248459681868553 0.129551813006401 1.06441605091095 2.95548892021179 3.62339305877686 0.714934885501862 -1.88138651847839 2.28413105010986 11.1693897247314 0.0996225327253342 16.3174095153809 12.2156620025635 8.31837272644043 4.5211353302002 13.2698926925659 -3.83487176895142 3.34997963905334 23.1048221588135 18.0157070159912 23.8382911682129 16.1380958557129 -4.73975896835327 -4.63857793807983 -1.60428786277771 6.98351764678955 -1.30418419837952 4.74290943145752 -0.864346146583557 -0.560626029968262 7.41081619262695 -1.63432371616364 -0.719737410545349
