NCOLS 174
NROWS 31
XLLCORNER 353712
YLLCORNER 6700960
CELLSIZE 16 
NODATA_value -3.4e+38 
11.0323219299316 11.7061614990234 12.6671295166016 13.734637260437 14.7856016159058 16.1524524688721 18.5354499816895 22.7834205627441 37.0330963134766 25.3452739715576 20.5915126800537 23.6207523345947 16.4030170440674 36.1412506103516 22.0736217498779 11.5865755081177 23.7348880767822 11.7295618057251 15.3832178115845 25.0088176727295 -0.336198180913925 0.128197878599167 1.03919529914856 2.09943151473999 11.0751113891602 24.3774833679199 3.54835081100464 6.80645322799683 4.85850095748901 7.50259685516357 6.38856744766235 11.1232328414917 25.8784427642822 12.4399738311768 18.1253280639648 17.153902053833 24.4652290344238 6.58683347702026 19.01123046875 -2.73832440376282 0.88872754573822 -4.29207897186279 7.79590511322021 -2.42452716827393 0.657894968986511 11.0956258773804 22.9555797576904 1.63453984260559 6.73550939559937 15.4024505615234 -3.39373230934143 3.32701635360718 -1.30985307693481 5.64219903945923 7.4935359954834 -2.70739126205444 -1.82867419719696 4.03221750259399 16.1426372528076 3.04864048957825 -2.82186245918274 -2.35699200630188 -0.805598676204681 1.19601774215698 27.6267719268799 -2.08677959442139 -1.95692813396454 -1.65232455730438 -1.47155475616455 0.675019800662994 1.09008049964905 1.26723051071167 1.39021241664886 1.71458268165588 1.88023591041565 1.09779119491577 0.263493180274963 0.25535175204277 -0.194828122854233 -0.129063040018082 0.208688676357269 -0.764922082424164 -0.864205360412598 -0.842337369918823 -0.348614662885666 -0.179577350616455 -0.160541459918022 -0.142885804176331 -0.123282611370087 -0.101854600012302 -0.0823463946580887 -0.0539792031049728 -0.0231045484542847 0.0110746435821056 0.0583577640354633 0.107544638216496 0.145692095160484 0.177457809448242 0.20863476395607 0.250696897506714 0.320722192525864 0.392616838216782 0.464463084936142 0.531378567218781 0.606696128845215 0.678884863853455 0.735634922981262 0.801344096660614 0.865736186504364 0.917497992515564 0.99118310213089 1.07726049423218 1.19021856784821 1.28725373744965 1.41652464866638 1.50530672073364 1.67576634883881 1.82276833057404 1.97566533088684 2.1430025100708 2.35996079444885 2.60131764411926 2.84760928153992 3.15800213813782 3.48115181922913 4.02895927429199 4.69403743743896 5.67546844482422 7.06013965606689 10.4702711105347 20.9611701965332 7.20621156692505 -0.286399573087692 0.396628201007843 0.35599359869957 0.680660486221313 0.705758988857269 0.731791734695435 0.761700093746185 0.77215701341629 0.816464722156525 0.840836763381958 0.869036018848419 0.921749293804169 0.951382517814636 0.977944254875183 1.01503586769104 1.12638998031616 1.77160453796387 1.82323551177979 2.45871686935425 2.53500771522522 2.57192897796631 2.65229415893555 3.03414177894592 3.29510569572449 3.78970336914062 3.87886190414429 4.85687637329102 5.96490526199341 5.25968265533447 5.38105249404907 5.49757146835327 6.06305074691772 8.72071838378906 17.2561054229736 6.08305978775024 6.33809757232666 6.44657564163208 6.8597526550293 7.19606161117554 7.37621545791626 7.56472730636597 7.75649499893188
10.9187059402466 11.6287956237793 12.4328536987305 14.153299331665 16.0919036865234 18.9852733612061 23.3300914764404 29.9602870941162 42.8119430541992 38.0642585754395 12.5659942626953 15.7257766723633 26.8356666564941 14.7104806900024 19.2618160247803 21.1765232086182 31.4404792785645 22.9061641693115 2.24017071723938 4.52338743209839 0.443670213222504 0.763753771781921 1.38973128795624 7.87612056732178 13.5395669937134 30.0847492218018 3.04165029525757 4.95154571533203 7.86001205444336 6.49922323226929 10.9012861251831 11.6423177719116 12.0345239639282 17.1937217712402 14.1534538269043 14.5341548919678 15.2632389068604 23.4587516784668 -3.35981464385986 -3.25862503051758 -3.02167725563049 -2.54545307159424 -1.47246980667114 0.151445880532265 5.81629037857056 15.4300546646118 10.6734199523926 19.7562065124512 13.1841201782227 -3.68172311782837 -3.19944334030151 -2.86021542549133 -2.72036528587341 -1.09204506874084 9.87197780609131 -3.01100373268127 5.33488941192627 -2.6340184211731 -1.92201232910156 1.29520118236542 -1.74288213253021 1.14100933074951 3.38526201248169 6.93602275848389 18.3655872344971 4.17757225036621 -1.62840640544891 -1.19650495052338 -0.332712411880493 1.29276812076569 1.73623859882355 2.01076054573059 2.25201654434204 2.25882935523987 1.0903080701828 0.898751854896545 0.666213929653168 0.421565324068069 0.445647209882736 -0.506090223789215 -0.610138237476349 -0.487499803304672 -0.74088454246521 -0.71971470117569 -0.651940762996674 -0.593672454357147 -0.290749132633209 -0.282917261123657 -0.265572607517242 -0.246311619877815 -0.232497155666351 -0.218578711152077 -0.20037168264389 -0.169895738363266 -0.140790298581123 -0.128445878624916 -0.101167626678944 -0.0740597769618034 -0.043930284678936 -0.0143037019297481 0.0313359946012497 0.0941710621118546 0.152296900749207 0.21464715898037 0.279310971498489 0.334261178970337 0.387271285057068 0.432652115821838 0.481862187385559 0.53355485200882 0.574260592460632 0.654325306415558 0.724219620227814 0.818337500095367 0.909091472625732 1.00251841545105 1.05141758918762 1.2128781080246 1.29845142364502 1.4033590555191 1.55021405220032 1.69209456443787 1.85048258304596 2.05159425735474 2.23674535751343 2.48254036903381 2.83637523651123 3.18295884132385 3.52705121040344 4.23904752731323 5.9710955619812 9.70709896087646 21.6977062225342 -0.0347471199929714 0.126748278737068 0.880750119686127 0.918822526931763 0.955549776554108 1.00364935398102 1.03249847888947 1.10078620910645 1.1486120223999 1.20265758037567 1.27239978313446 1.3543404340744 1.41622936725616 1.51154148578644 1.65324568748474 1.76893389225006 1.89603269100189 2.1353497505188 2.22626352310181 2.44732117652893 2.76703238487244 3.42762064933777 3.77860069274902 4.47368669509888 5.45312738418579 7.32006740570068 10.9400339126587 21.334379196167 4.96156740188599 5.28204822540283 5.55325746536255 9.69298267364502 5.586745262146 5.71338605880737 5.84607982635498 5.99716806411743 6.2092752456665 6.75317192077637 6.9346022605896 7.12548351287842 7.32200336456299
10.5261325836182 11.2352857589722 12.0129337310791 12.966588973999 14.204083442688 15.7662811279297 19.2032852172852 25.0107002258301 35.6935348510742 33.5608215332031 16.1960163116455 16.7301712036133 18.0425701141357 12.8803558349609 19.0969333648682 23.1340866088867 23.2399482727051 26.6790542602539 0.318924427032471 1.28973472118378 17.8834457397461 1.55104112625122 1.74420821666718 6.43923330307007 9.43851661682129 19.4019889831543 23.2816162109375 3.79152607917786 17.1987285614014 7.76091718673706 15.7741193771362 19.5040073394775 20.0411548614502 31.120304107666 47.7537841796875 -0.925843298435211 8.40209197998047 25.4724979400635 -0.192334666848183 7.27752304077148 -0.674235463142395 -0.204330384731293 1.11324083805084 5.06575298309326 6.66595506668091 9.24954605102539 26.4022903442383 17.6092662811279 22.8727512359619 -3.85591840744019 -3.68523931503296 -3.33871936798096 2.90365886688232 20.5729160308838 -0.929682016372681 -2.86995315551758 -2.67653489112854 0.902521193027496 -2.54477906227112 -1.70664858818054 -0.323898702859879 3.42622780799866 11.8077068328857 -1.27050077915192 17.3438472747803 -1.25729286670685 -1.09391033649445 0.815626561641693 1.33823919296265 1.6639016866684 1.96820962429047 2.40756916999817 3.0041663646698 1.67641484737396 0.953461050987244 0.603397607803345 0.664574921131134 0.630401015281677 0.489794582128525 -0.155659630894661 -0.749203205108643 -0.673716247081757 -0.612047970294952 -0.57603532075882 -0.476312756538391 -0.37270450592041 -0.511963665485382 -0.34837681055069 -0.338371843099594 -0.322367131710052 -0.308179080486298 -0.298635601997375 -0.285559922456741 0.0194113962352276 -0.27282252907753 -0.261392533779144 -0.241524696350098 -0.227017909288406 -0.197678402066231 -0.166851922869682 -0.137187138199806 -0.0868810191750526 -0.0441254042088985 0.00896050315350294 0.0664164572954178 0.119187287986279 0.170508041977882 0.206051960587502 0.245104774832726 0.288353085517883 0.331916391849518 0.38802507519722 0.455207258462906 0.524938941001892 0.608807444572449 0.688383340835571 0.755090892314911 0.848618984222412 0.915128588676453 0.986442685127258 1.07374823093414 1.17172837257385 1.30549716949463 1.39588820934296 1.53390347957611 1.68482601642609 1.91645765304565 2.44575643539429 1.83670508861542 1.80449211597443 2.3205246925354 3.80899119377136 7.39453554153442 17.8875560760498 0.587723433971405 1.21682381629944 1.24390852451324 1.29794311523438 1.34424638748169 1.38743853569031 1.43986225128174 1.49803054332733 1.5522392988205 1.61122381687164 1.67152237892151 1.74781680107117 1.84879755973816 1.89697182178497 2.13743782043457 2.18392872810364 2.21342134475708 2.32027983665466 2.48632168769836 2.63289165496826 2.8924605846405 3.64524602890015 3.73397064208984 3.89800381660461 4.83514976501465 6.38424730300903 9.07559490203857 12.0924921035767 4.81365156173706 6.50576210021973 12.4315748214722 7.14629793167114 8.20329570770264 27.57080078125 5.01465511322021 6.13515901565552 6.28568363189697 6.45293569564819 6.62932825088501 6.81924533843994
10.0790758132935 11.0538024902344 12.1999502182007 13.6805734634399 15.0996007919312 16.7841873168945 19.3798274993896 22.9313697814941 29.318567276001 36.2413711547852 26.3181076049805 38.6450691223145 16.4947052001953 10.1301889419556 11.9758281707764 10.8624124526978 20.452449798584 37.4651718139648 17.4068965911865 -0.549398124217987 0.384751081466675 1.69853377342224 2.35055065155029 4.75396156311035 8.39168834686279 10.2390031814575 5.03273439407349 1.99587690830231 4.26442337036133 5.32652044296265 7.63514375686646 9.98392295837402 10.2171039581299 15.5079832077026 11.2725563049316 6.10168504714966 6.21246767044067 6.28984355926514 14.069712638855 9.17966175079346 -0.253559559583664 0.394360989332199 2.66841721534729 5.03673791885376 10.3995141983032 16.5284252166748 23.0119113922119 23.0763683319092 0.693249464035034 1.31045746803284 -3.68979811668396 -3.36509132385254 -3.14502191543579 14.7103128433228 -2.79562091827393 4.94014120101929 15.6917591094971 -2.22789025306702 -1.78568542003632 -1.47774183750153 6.89937210083008 20.549991607666 0.0892049297690392 -1.34416902065277 -1.06799721717834 4.70278406143188 6.3980827331543 14.2372674942017 7.21205902099609 12.0296230316162 -0.983741223812103 2.92782545089722 3.28534936904907 2.3085560798645 1.14712727069855 0.528719067573547 0.568553626537323 0.647638261318207 0.419284164905548 -0.24600824713707 -0.61608749628067 -0.592528998851776 -0.516942501068115 -0.379110962152481 -0.434804916381836 -0.297021776437759 -0.0336181856691837 -0.384233355522156 -0.532485067844391 -0.52584183216095 -0.47061675786972 -0.361978143453598 -0.250413626432419 -0.198744043707848 -0.315264701843262 -0.514530062675476 -0.513297498226166 -0.504284262657166 -0.48948085308075 -0.465316891670227 -0.438267379999161 -0.395087689161301 -0.369654953479767 -0.328704565763474 -0.288276731967926 -0.231863439083099 -0.18606735765934 -0.154309049248695 -0.0972108840942383 -0.0642479881644249 -0.0369274131953716 -0.00597821269184351 0.0684786885976791 0.139032647013664 0.230445921421051 0.315684497356415 0.41452768445015 0.465019553899765 0.56094890832901 0.63387405872345 0.805473804473877 0.830620169639587 0.915754735469818 1.06668794155121 1.24224948883057 1.58514869213104 1.80674636363983 2.19155120849609 2.25288271903992 1.18646645545959 0.836819887161255 0.890862584114075 0.980292439460754 1.13363969326019 1.29006004333496 1.39011323451996 1.43027436733246 1.46723997592926 1.5333000421524 1.58365201950073 1.65029180049896 1.72346425056458 1.79512798786163 1.88654971122742 1.96188580989838 2.04974389076233 2.15975546836853 2.23868107795715 2.33871650695801 2.4624936580658 2.60878539085388 2.79006433486938 2.9755494594574 3.17841124534607 3.36501216888428 3.65202713012695 3.98958134651184 4.35657358169556 4.96913766860962 6.61866807937622 10.4497718811035 16.5542163848877 4.70186614990234 9.19956493377686 10.7856826782227 18.537748336792 31.4267807006836 4.24090623855591 5.25979328155518 5.55980825424194 5.67690229415894 5.80660057067871 5.91874980926514 6.0482816696167
9.89547443389893 10.7503881454468 11.7123746871948 12.933798789978 14.0586080551147 15.3469305038452 17.6195106506348 21.6822662353516 27.7901458740234 38.1520042419434 49.6543655395508 16.1768836975098 20.4344882965088 18.5756931304932 32.7811050415039 7.9700288772583 26.9042701721191 31.7694702148438 16.3720874786377 0.0140609005466104 0.114858187735081 0.795214176177979 5.20978212356567 2.82422852516174 31.9850921630859 4.31073760986328 15.1068897247314 2.00305867195129 4.69685077667236 6.95377111434937 8.67492771148682 11.2190885543823 23.8038787841797 10.2369918823242 8.74997997283936 6.7391185760498 13.3687810897827 20.3767147064209 6.80424976348877 0.948320686817169 0.420629501342773 1.25024724006653 4.38529682159424 6.88226699829102 13.5183534622192 26.4498825073242 16.8674221038818 6.94431447982788 7.34795999526978 -1.33774995803833 0.863718569278717 -3.7428126335144 -3.46246743202209 -2.72781562805176 -2.53908514976501 5.82551574707031 16.9674377441406 -2.04194235801697 -0.662346541881561 2.88268446922302 10.1352090835571 13.7040576934814 -1.28535878658295 12.8958749771118 19.9372425079346 38.3206176757812 3.61579370498657 -0.798379242420197 5.85062599182129 14.6912775039673 -1.42037761211395 1.30892622470856 3.34737777709961 3.26747179031372 1.5235652923584 0.826040506362915 0.472524553537369 0.541611015796661 0.552750051021576 -0.11534807831049 -0.490826725959778 -0.462631434202194 -0.43303257226944 -0.305219143629074 -0.233908772468567 -0.221123993396759 0.0118367178365588 0.143064841628075 -0.42387381196022 -0.409683376550674 -0.292534470558167 -0.188028961420059 -0.102022424340248 -0.0680969506502151 -0.0503999516367912 -0.0125675480812788 -0.517535924911499 -0.516997337341309 -0.495413988828659 -0.486776292324066 -0.454872667789459 -0.422163158655167 -0.409264087677002 -0.386853098869324 -0.355864465236664 -0.307266235351562 -0.276318341493607 -0.238914653658867 -0.174675315618515 0.34169664978981 -0.163209199905396 -0.0937538221478462 -0.032226987183094 0.0393950082361698 0.116129130125046 0.202313631772995 0.285462200641632 0.381287723779678 0.410451620817184 0.500878036022186 0.525091469287872 0.613406777381897 0.687691152095795 0.804702162742615 0.913383007049561 1.29935383796692 1.54651641845703 1.83863604068756 2.3067421913147 0.937305212020874 0.87101423740387 -0.082747682929039 -0.0694215670228004 0.0370332822203636 0.204410210251808 0.348271936178207 0.435060024261475 0.461510092020035 0.468054264783859 0.470687329769135 1.08109402656555 1.11132180690765 1.14434766769409 1.25571322441101 1.2881532907486 1.3100688457489 1.34435331821442 1.3701628446579 1.40657603740692 1.43697535991669 1.46790277957916 1.50277960300446 1.54351854324341 2.82675194740295 2.87676858901978 2.93802618980408 3.12197303771973 3.57162308692932 3.64385557174683 3.71732139587402 3.79093408584595 6.01123285293579 9.77903175354004 4.0943021774292 4.297935962677 4.63265085220337 4.65600728988647 4.86880207061768 5.07940196990967 5.1784348487854 5.30470371246338 5.49101495742798 5.69761943817139 5.82080793380737
8.9812707901001 9.78176879882812 10.6842393875122 11.8247146606445 12.8379755020142 14.089015007019 15.5646734237671 17.3817386627197 20.6394309997559 27.4254474639893 38.2878265380859 24.6509799957275 19.6835327148438 17.6436882019043 21.8145294189453 3.70874738693237 7.34862804412842 12.2906265258789 30.6245498657227 1.13422167301178 5.79667043685913 1.51365029811859 2.20189666748047 31.9308624267578 2.50840401649475 15.3114461898804 5.84896469116211 3.03265976905823 5.59857559204102 6.30870008468628 6.9897985458374 8.68726825714111 10.0074005126953 12.0496406555176 12.7659502029419 32.2672119140625 12.119402885437 27.0221252441406 0.704398274421692 1.13995063304901 2.79112720489502 3.49928379058838 5.3915810585022 9.60554790496826 10.0126285552979 24.2291679382324 11.2166519165039 13.9653911590576 3.99174880981445 4.73433017730713 12.8282403945923 -3.72162485122681 -2.08924245834351 -2.61152386665344 -1.81512522697449 0.659842252731323 3.86202454566956 -1.72346580028534 -1.55281388759613 -1.4852294921875 4.57166481018066 8.11555576324463 15.8890008926392 27.3043384552002 20.7641506195068 -1.36949217319489 44.9867134094238 -1.32645082473755 -0.961526036262512 -0.73708838224411 3.38006782531738 3.99061584472656 4.04376602172852 3.19750785827637 2.57999801635742 1.23807954788208 0.669970035552979 0.312245845794678 0.355691194534302 0.402236878871918 -0.395435154438019 -0.383179843425751 -0.323832213878632 -0.271400421857834 -0.201724708080292 -0.161574527621269 -0.19774229824543 -0.0660888776183128 -0.0344241484999657 -0.23173925280571 -0.206466615200043 -0.167467564344406 -0.0573052689433098 0.0271067414432764 0.129001557826996 0.188826724886894 -0.255925476551056 -0.552042126655579 -0.54144674539566 -0.524002075195312 -0.509165644645691 -0.490703165531158 -0.479280054569244 -0.466761499643326 -0.448062986135483 -0.418701350688934 -0.417434871196747 -0.364481836557388 -0.258397966623306 0.0687936320900917 -0.314212262630463 -0.270781815052032 -0.215850025415421 0.0684121921658516 0.104844950139523 0.133272111415863 0.169254884123802 0.217078417539597 0.75146895647049 0.220363944768906 0.28001070022583 0.301677107810974 0.374513655900955 0.412893146276474 0.574329435825348 0.73751038312912 0.981828927993774 1.07608592510223 1.42325520515442 1.02402317523956 0.88915091753006 0.239370331168175 0.239428833127022 0.290894895792007 0.421291410923004 0.603564560413361 0.77277797460556 0.880316317081451 0.921707034111023 0.961529195308685 1.01424789428711 1.25670170783997 1.28595519065857 1.54897749423981 1.73446238040924 1.76762878894806 1.80747258663177 1.85033297538757 1.89336729049683 1.93545484542847 2.12256097793579 2.34506392478943 2.64103126525879 2.9820671081543 3.47230124473572 4.15124225616455 5.09781789779663 6.73695373535156 10.0390958786011 19.0823554992676 3.16677403450012 4.87026596069336 10.9085807800293 18.8869686126709 3.85808038711548 4.41098260879517 4.79962778091431 5.0053539276123 5.09521389007568 5.22304105758667 5.36028337478638 5.49399995803833 5.62833118438721 5.76496124267578
8.10055065155029 8.86296558380127 9.71354103088379 10.72594165802 11.6414804458618 12.7679090499878 14.1478853225708 15.8547735214233 18.7745418548584 23.6078929901123 33.0880928039551 42.2441062927246 20.7842845916748 15.8619346618652 36.2762718200684 3.0154128074646 3.30466103553772 6.21526098251343 10.7336559295654 5.66385173797607 1.09626734256744 1.21198105812073 11.8296003341675 18.1260051727295 14.4074506759644 1.10968804359436 1.65144264698029 3.56162309646606 4.18244171142578 5.58446645736694 9.35443496704102 24.2895355224609 3.3921480178833 13.9229650497437 5.10300350189209 7.94634294509888 8.03275203704834 8.62090969085693 17.7154960632324 1.87817943096161 3.44287896156311 4.6384859085083 8.96656608581543 20.1301040649414 10.549017906189 30.7733421325684 9.30042552947998 2.78463196754456 3.04371762275696 17.1190509796143 -3.41245126724243 -3.20387268066406 -2.58563637733459 1.10103392601013 14.0360622406006 30.4917240142822 -2.2655463218689 -1.57841086387634 2.86849880218506 14.4097080230713 -0.243899658322334 17.9179344177246 35.7475395202637 2.86410713195801 3.68427038192749 -0.432908266782761 -0.60884016752243 26.1616554260254 44.4606781005859 -1.27212154865265 -1.08623600006104 -0.0549760237336159 3.68293452262878 3.66893577575684 2.74261498451233 1.94359040260315 0.943792104721069 0.45953893661499 0.178438112139702 0.195697814226151 -0.204727217555046 -0.285487592220306 -0.237468838691711 -0.172265633940697 -0.0702943205833435 0.0650370344519615 -0.00125402270350605 0.0435458645224571 0.195001155138016 0.226815730333328 0.1416305154562 -0.150933176279068 -0.116167701780796 -0.0368147157132626 0.0508120395243168 0.126617833971977 0.148242101073265 -0.568567276000977 -0.608202278614044 -0.594154238700867 -0.530690550804138 -0.58420592546463 -0.569182813167572 -0.557176530361176 -0.412775337696075 0.011174188926816 -0.554614007472992 -0.521494567394257 -0.478518754243851 -0.459117859601974 -0.455076634883881 -0.438631385564804 -0.420711606740952 -0.0207028537988663 0.0250493530184031 0.0564339756965637 0.0997494980692863 0.137693554162979 0.155778437852859 0.171601161360741 0.161519557237625 0.190086886286736 0.193083107471466 0.20175576210022 0.23462787270546 0.382015913724899 0.499500930309296 0.604019045829773 0.717931389808655 0.853396356105804 0.683655858039856 0.237099096179008 0.239662870764732 0.282162576913834 0.360126852989197 0.50358110666275 0.666467547416687 0.817038118839264 0.913388133049011 0.959834456443787 0.99622654914856 1.04619145393372 1.11371302604675 1.63586330413818 1.78766512870789 2.03251242637634 2.07633757591248 2.12440729141235 2.16940927505493 2.21955847740173 2.27212572097778 2.34128475189209 2.62390851974487 2.98234152793884 3.44542717933655 4.09991931915283 5.06908178329468 6.74447107315063 9.89502334594727 18.6849231719971 3.7863941192627 3.85784935951233 4.10802125930786 5.5753960609436 6.2854380607605 9.39435291290283 4.5607476234436 5.02121210098267 5.12138509750366 5.26116275787354 5.45582008361816 5.57289791107178 5.72048473358154 5.88802576065063
6.40020418167114 7.22707986831665 8.09233856201172 9.1792163848877 10.0264682769775 11.2790079116821 12.8999929428101 14.9789304733276 17.8059787750244 21.8081912994385 27.8537559509277 39.9381790161133 30.3110046386719 5.03354597091675 15.3553142547607 5.5548210144043 10.5055074691772 14.4343891143799 2.44415855407715 5.12139511108398 1.77928328514099 2.96002650260925 4.60148620605469 16.7104015350342 9.44401836395264 1.77734708786011 2.18000173568726 4.62766599655151 8.12719058990479 11.8908061981201 8.17013072967529 21.730167388916 20.0646591186523 2.07452201843262 2.11262059211731 17.2666683197021 3.08711194992065 3.94813179969788 4.23978519439697 5.17795133590698 6.0712685585022 8.98787212371826 11.7533597946167 15.2569952011108 19.0933246612549 29.9842319488525 12.6000261306763 2.17673349380493 15.8640775680542 0.642196655273438 -3.27171754837036 1.51657605171204 -2.77157211303711 -2.39714789390564 4.19210529327393 1.09288620948792 -1.5339320898056 2.35291075706482 4.36551761627197 8.29599952697754 16.8453903198242 36.8509826660156 4.03941917419434 2.54041481018066 8.12838363647461 14.9929790496826 50.8309669494629 -1.43036007881165 -1.27410614490509 42.6399345397949 -1.13300681114197 -0.40846511721611 4.43071508407593 2.93587756156921 3.10743141174316 2.24244856834412 1.11658084392548 0.934601187705994 0.408506691455841 0.0288233961910009 -0.00375660392455757 -0.190054535865784 -0.157190948724747 -0.032455537468195 0.100371234118938 0.204063728451729 0.260729283094406 0.277639538049698 0.35357391834259 0.538599193096161 0.63269567489624 0.448365449905396 -0.182401865720749 -0.158916234970093 -0.11907734721899 -0.0321975089609623 -0.0840385854244232 -0.145100235939026 -0.58079206943512 -0.660711228847504 -0.557148277759552 -0.654662311077118 -0.652775764465332 -0.563722848892212 -0.246185824275017 -0.505188703536987 -0.643134593963623 -0.640207946300507 -0.60742461681366 -0.582710742950439 -0.233399927616119 -0.49488952755928 -0.440035045146942 -0.102413319051266 -0.0581393055617809 -0.039604876190424 -0.00335274264216423 0.433108299970627 0.481403261423111 0.521386742591858 0.542522788047791 0.564205288887024 0.567875504493713 0.586856007575989 0.624543130397797 0.669362425804138 0.697693407535553 0.725405216217041 0.752404510974884 0.761268794536591 0.772098124027252 0.773511230945587 0.802857100963593 0.856834888458252 0.92987185716629 1.03397786617279 1.18822348117828 1.36410737037659 1.48672032356262 1.57518291473389 1.64381837844849 1.71459662914276 1.79579436779022 1.90919160842896 2.02495098114014 2.11989426612854 2.2415657043457 2.37251710891724 2.5202362537384 2.67955708503723 2.86824822425842 3.08827066421509 3.34912014007568 3.64416122436523 3.96858596801758 4.3925142288208 4.98998308181763 6.59286022186279 9.71260547637939 14.9569606781006 4.87587690353394 6.14756965637207 12.7172431945801 25.5580883026123 3.98483753204346 4.42103910446167 4.65489912033081 5.23574304580688 5.34552049636841 5.48572731018066 5.6286153793335 5.77172422409058 5.92133188247681 6.06561231613159
5.89115858078003 6.47967720031738 6.9992413520813 7.61052894592285 8.04768180847168 8.67224884033203 9.41670989990234 10.2972249984741 11.8869829177856 14.6466379165649 18.9496097564697 27.1172847747803 29.9983768463135 10.7815551757812 28.7605972290039 11.177773475647 14.3504076004028 14.4223937988281 4.20054578781128 9.11520576477051 1.16446340084076 1.57362914085388 1.67545735836029 2.29907202720642 5.81017208099365 16.556978225708 3.57640266418457 4.70055484771729 13.1794118881226 6.4396595954895 7.61624956130981 15.1965084075928 20.0450687408447 4.8847017288208 15.9510917663574 1.48201835155487 1.67269027233124 4.97037935256958 3.13185143470764 4.26965665817261 5.06848001480103 8.48667049407959 6.34514188766479 8.0121374130249 14.6088161468506 18.9837970733643 24.9575042724609 7.44230985641479 4.26998853683472 -2.82762765884399 -2.57862043380737 -2.44349789619446 -2.28033518791199 -2.04278922080994 1.3616464138031 26.512170791626 -1.59460365772247 7.1871976852417 12.627495765686 21.6411666870117 41.5403633117676 -0.367139101028442 5.11357021331787 0.585497856140137 24.5657176971436 42.3410911560059 5.35021734237671 7.94572401046753 -0.752810180187225 0.851585388183594 46.3836364746094 -1.24704933166504 4.45036315917969 3.0187292098999 2.25455331802368 2.69210338592529 1.58414542675018 1.2325633764267 0.758735001087189 0.0990649685263634 0.207691475749016 -0.0295849610120058 -0.0223421677947044 0.0971333906054497 0.259728103876114 0.36324605345726 0.455092757940292 0.520683765411377 0.540535390377045 0.681921184062958 0.981170058250427 0.77366316318512 0.188813060522079 -0.152347013354301 0.0226762276142836 -0.212219834327698 -0.199044570326805 -0.0801658779382706 -0.0528929680585861 -0.383482068777084 -0.684164345264435 -0.667129039764404 -0.66460907459259 -0.597633540630341 -0.236418828368187 -0.555823385715485 -0.669220745563507 -0.66001296043396 -0.595183134078979 -0.452692091464996 -0.308967441320419 -0.389587998390198 -0.279639393091202 -0.327106416225433 -0.316861718893051 -0.241546720266342 -0.221352979540825 -0.188840806484222 0.389389544725418 0.444189846515656 0.49068495631218 0.494751155376434 0.506846904754639 0.522648215293884 0.577156841754913 0.604305624961853 0.64163064956665 0.68690550327301 0.710520029067993 0.723648965358734 0.734390199184418 0.737630605697632 0.76279604434967 0.806582748889923 0.883478045463562 0.976727724075317 1.1254403591156 1.28691625595093 1.42167115211487 1.50850117206573 1.58912885189056 1.65599691867828 1.72774875164032 1.84682643413544 1.94470882415771 2.0352885723114 2.14466238021851 2.26403737068176 2.42115187644958 2.53862833976746 2.70450329780579 2.89705538749695 3.11550426483154 3.36192870140076 3.66273593902588 4.02350044250488 4.46050310134888 4.99291467666626 6.2633228302002 12.3185529708862 5.37268400192261 9.57710266113281 8.18664932250977 15.8410053253174 34.7182083129883 4.25302886962891 4.5312066078186 4.95529174804688 5.43482351303101 5.57666444778442 5.71780872344971 5.86958169937134 6.02733755111694 6.18967056274414
5.5158429145813 6.01390981674194 6.45291757583618 6.98131799697876 7.30076122283936 7.84459590911865 8.46943855285645 9.25044631958008 11.1300411224365 13.7468233108521 17.9133625030518 29.955114364624 21.3255214691162 9.15284729003906 23.8917560577393 12.505952835083 10.8675842285156 19.2092971801758 12.855149269104 1.18230557441711 2.33276891708374 1.53216421604156 1.82685196399689 2.62184143066406 4.18838167190552 11.4483528137207 4.53567552566528 6.32713031768799 7.46697854995728 10.897274017334 15.6633272171021 30.480318069458 45.6063385009766 8.58822536468506 3.60299825668335 -0.608494877815247 0.255749732255936 12.2070331573486 1.56604790687561 2.70707726478577 2.08731865882874 3.15109062194824 3.66426610946655 5.02313899993896 7.57555246353149 8.12383842468262 8.65190315246582 7.94362306594849 -1.12027871608734 5.88012313842773 -1.52195453643799 -1.94745278358459 11.4631462097168 -1.23794138431549 -0.922859072685242 -0.203026428818703 7.42610311508179 3.65254378318787 24.3507041931152 45.2269744873047 0.342657774686813 4.813157081604 21.6607513427734 38.1773109436035 18.7290649414062 1.94474589824677 2.88433027267456 5.07343149185181 7.52763080596924 19.9776954650879 -1.44231164455414 21.7318859100342 -0.190015643835068 3.39499640464783 1.70705115795135 1.85047423839569 2.6623067855835 1.36739003658295 1.10617566108704 0.387129217386246 0.292780339717865 0.219125062227249 0.120210014283657 0.191145241260529 0.32689955830574 0.446244299411774 0.526986598968506 0.632362425327301 0.699977576732635 0.84057205915451 0.662061750888824 0.661269545555115 0.243433311581612 0.340153098106384 0.0950078442692757 -0.248081848025322 -0.227908551692963 -0.193238973617554 -0.0681789144873619 -0.0604061707854271 -0.473936021327972 -0.581404447555542 -0.554056346416473 -0.517559468746185 -0.363675355911255 -0.516006827354431 -0.545803427696228 -0.517987430095673 -0.415066063404083 -0.120101869106293 -0.399372905492783 -0.342932879924774 -0.115061208605766 -0.621167719364166 -0.538243591785431 -0.511042833328247 -0.12199792265892 -0.0586031191051006 -0.0206272900104523 0.0246095042675734 0.064417228102684 0.410050243139267 0.0746713578701019 0.120632827281952 0.14087325334549 0.156341806054115 0.177614763379097 0.215322956442833 0.234910368919373 0.393257915973663 0.506069719791412 0.618476927280426 0.235717296600342 0.270067036151886 0.333499610424042 0.427437365055084 0.553930878639221 0.702844619750977 0.824182868003845 0.910086929798126 0.951188087463379 1.03238809108734 1.08598029613495 1.17600810527802 1.46087050437927 2.08224010467529 2.15147757530212 2.20028305053711 2.27465033531189 2.32333993911743 2.38211584091187 2.48517942428589 3.31971907615662 3.562744140625 3.61691999435425 3.71242046356201 3.80306458473206 3.88519191741943 4.50074100494385 5.64331722259521 7.44996118545532 8.46117877960205 16.362340927124 4.24049997329712 4.30690431594849 7.19034004211426 14.0506010055542 4.96592283248901 5.0516209602356 5.44585037231445 5.65069580078125 5.79525947570801 5.9478702545166 6.16563701629639
4.79536390304565 5.19812917709351 5.62050247192383 5.95847845077515 6.2651743888855 6.73610210418701 7.26441764831543 7.89588928222656 8.62478637695312 9.46759605407715 11.0290336608887 14.5696649551392 21.3664302825928 27.3160972595215 10.0699338912964 10.5883712768555 15.5481958389282 17.5368003845215 13.4340963363647 1.91904330253601 11.4418802261353 0.332874000072479 1.28885746002197 2.14211058616638 2.62341237068176 4.25922298431396 5.66674995422363 8.97933197021484 10.4391012191772 6.01085424423218 12.9112148284912 17.2499809265137 23.1233310699463 34.9907455444336 4.64052152633667 8.73804378509521 0.874831676483154 1.83111965656281 21.2366580963135 3.41143178939819 12.5810499191284 -0.535916745662689 1.67304503917694 2.90113544464111 6.13529062271118 12.6307182312012 0.463117718696594 6.08566999435425 0.119324013590813 1.09515488147736 5.52790594100952 7.29928779602051 11.2815933227539 12.4343156814575 18.4522476196289 -1.32322800159454 17.6492023468018 35.3353080749512 0.984359085559845 5.47166967391968 20.0668621063232 34.8192977905273 21.4706745147705 0.53383332490921 1.96309769153595 4.04920673370361 5.85751533508301 7.14498472213745 9.89503860473633 16.0882205963135 3.42273116111755 5.04978609085083 -1.26959562301636 3.46031832695007 2.04451394081116 1.6660008430481 2.16308307647705 3.23409795761108 1.35272705554962 0.820789158344269 0.885641098022461 0.287769854068756 0.299205094575882 0.352884083986282 0.415816575288773 0.48468142747879 0.591200172901154 0.699171781539917 0.972791850566864 1.22233641147614 0.724603474140167 0.240630701184273 0.335522383451462 0.54393994808197 0.0982590019702911 -0.0783558785915375 -0.219480231404305 -0.292097330093384 -0.173044592142105 -0.0353598855435848 -0.00139335857238621 -0.480695337057114 -0.478695183992386 -0.154047712683678 -0.335317492485046 -0.466669172048569 -0.429559618234634 -0.395634710788727 -0.206817224621773 0.16802217066288 -0.438817411661148 -0.335016965866089 -0.0479205958545208 -0.450305104255676 -0.716832518577576 -0.696804225444794 -0.569077551364899 -0.524651646614075 -0.279986053705215 -0.182943522930145 -0.157725900411606 -0.135943576693535 -0.126634910702705 -0.11509869992733 -0.0787400007247925 -0.0589308515191078 -0.0420524440705776 -0.0231259688735008 -0.0208978615701199 -0.013956107199192 0.258725821971893 -0.0135147972032428 -0.00101850170176476 0.00123481545597315 0.0426451303064823 0.14006794989109 0.245358020067215 0.356223225593567 0.47302570939064 0.546326220035553 0.603813111782074 0.679603636264801 0.719309210777283 0.810324847698212 1.02349185943604 2.28230881690979 2.33213472366333 2.3844997882843 2.43628549575806 2.49436187744141 3.06096792221069 3.12687706947327 3.19466328620911 3.25114822387695 3.30127382278442 3.39559578895569 3.61135101318359 3.74350690841675 3.82771897315979 3.9106616973877 4.114577293396 4.41556024551392 5.26888275146484 5.28235483169556 9.15279197692871 5.31061124801636 5.37558269500732 5.61902570724487 6.42211866378784 5.89204931259155 6.35098552703857 6.51262950897217 6.68906545639038 6.87703227996826
3.52433657646179 3.87167692184448 4.34506702423096 4.54025030136108 4.89797925949097 5.4275689125061 6.07109117507935 6.84736633300781 7.84585523605347 9.17745876312256 10.9637393951416 13.6267642974854 17.9479389190674 24.5221900939941 33.0603256225586 3.56803178787231 16.2559947967529 4.29600524902344 10.0379104614258 1.69944131374359 3.53323197364807 3.80829524993896 16.8700313568115 1.38382267951965 3.94844913482666 4.39854764938354 4.97247457504272 5.62821483612061 6.41536045074463 7.56097507476807 9.3816385269165 12.7722291946411 18.1759796142578 31.6780586242676 8.42218971252441 12.7848062515259 17.3958721160889 -0.357555985450745 -0.276693522930145 2.4950647354126 2.99496150016785 3.60000371932983 11.1177577972412 13.240195274353 6.78753614425659 31.7031345367432 10.9252071380615 26.0473880767822 0.73951268196106 -0.625011265277863 14.3751964569092 2.62014770507812 13.4219055175781 17.7295436859131 25.5697116851807 45.4117050170898 -0.544061541557312 0.019257815554738 4.2696967124939 48.0788269042969 1.24244344234467 5.01375913619995 0.189795687794685 9.04778289794922 3.57630181312561 0.965677261352539 7.00197410583496 7.10833835601807 11.9324855804443 14.8654813766479 2.46721029281616 -0.386724889278412 11.9463109970093 -1.20157122612 2.66376543045044 1.86772620677948 2.03106188774109 2.73828077316284 3.57789921760559 1.2087436914444 1.24644947052002 0.607525944709778 0.655660450458527 0.875514268875122 0.924672663211823 0.584616601467133 0.517853558063507 0.589974284172058 0.703328430652618 0.904965758323669 0.969848871231079 0.212786734104156 0.143133148550987 0.298544853925705 0.138686716556549 0.190151765942574 -0.192337408661842 -0.351262778043747 -0.276565879583359 -0.124951280653477 0.00933003798127174 0.0789296180009842 -0.340629488229752 -0.28340956568718 -0.30517452955246 -0.302347809076309 -0.137225061655045 0.00355625175870955 0.0839907750487328 0.369726657867432 -0.39528751373291 -0.306959420442581 -0.200533539056778 -0.332804054021835 -0.484645009040833 -0.775161445140839 -0.750248432159424 -0.71620100736618 -0.658866226673126 -0.614274084568024 -0.583736896514893 -0.541689336299896 -0.16316594183445 1.77080452442169 -0.517262637615204 0.0336318463087082 -0.390633940696716 -0.0799268186092377 -0.149649098515511 -0.373278230428696 -0.374452948570251 -0.381836086511612 -0.157640367746353 -0.410894751548767 -0.392779499292374 -0.335455238819122 -0.270386010408401 -0.208252429962158 -0.148400202393532 -0.103490330278873 -0.0592939890921116 0.00279987161047757 0.0273422952741385 0.669258832931519 0.857734441757202 1.61346828937531 1.8243316411972 1.86329674720764 1.91906023025513 2.106281042099 2.87741994857788 3.18279552459717 3.3432948589325 3.74049735069275 3.81667804718018 3.99624466896057 4.1681227684021 4.26021862030029 4.35432529449463 4.45229911804199 4.5526442527771 4.93226671218872 5.03163290023804 5.14442729949951 5.26092863082886 5.37717342376709 5.50530767440796 5.64127731323242 5.7727484703064 5.92540454864502 6.09547424316406 6.25565099716187 6.42382001876831 6.60741567611694
2.65374398231506 2.83471941947937 3.08370900154114 3.1286153793335 3.28224015235901 3.49526882171631 3.73086619377136 3.99248456954956 4.29592657089233 4.63429069519043 5.59871816635132 7.49797058105469 11.2397403717041 21.4725608825684 4.72424602508545 8.27132606506348 8.17173671722412 5.36909294128418 5.51314640045166 6.03537559509277 11.6460952758789 25.4446086883545 1.22956240177155 2.05552697181702 2.47264623641968 2.64132070541382 3.00559997558594 3.59773564338684 4.5088415145874 5.95846700668335 8.15417671203613 11.5876560211182 17.8197898864746 32.8638534545898 2.12166738510132 3.34058523178101 7.87681150436401 9.28540992736816 1.86044216156006 2.52794718742371 4.73113775253296 6.20082807540894 6.70568180084229 7.31741762161255 8.17028522491455 9.16701412200928 10.3129005432129 11.6396541595459 13.7805089950562 17.2234439849854 22.5100955963135 31.6962509155273 50.7967834472656 -0.964940309524536 -0.816235840320587 2.46011734008789 6.46666383743286 50.3316688537598 0.591022610664368 0.431591480970383 1.51365482807159 -0.179345160722733 8.36686706542969 1.80431628227234 -0.0419400855898857 1.22538816928864 6.69488286972046 19.1661758422852 6.80707836151123 -0.22281439602375 2.38034391403198 7.25321483612061 0.622924208641052 3.21910262107849 -1.15706491470337 2.0810272693634 2.0833306312561 2.34734654426575 2.86367654800415 2.90359330177307 1.21634447574615 1.25018239021301 1.33014178276062 1.54753112792969 1.70414865016937 1.56955361366272 0.919838190078735 0.457061111927032 0.573402583599091 0.512906193733215 0.588727951049805 0.580395936965942 0.139362901449203 0.0250075981020927 0.102056577801704 0.317122459411621 -0.269681185483932 -0.278503328561783 -0.256005853414536 -0.136552304029465 0.0852042734622955 0.225115045905113 0.26917576789856 -0.1880754083395 -0.253893852233887 -0.149405956268311 -0.0277271512895823 0.188202902674675 0.352146446704865 0.487636417150497 -0.228605225682259 -0.168049499392509 -0.244236975908279 -0.154156997799873 -0.172502741217613 -0.850638747215271 -0.829931437969208 -0.803017795085907 -0.751763641834259 -0.714830577373505 -0.679013967514038 -0.631665766239166 -0.0746470987796783 0.69059431552887 -0.575567662715912 -0.383861809968948 -0.131528720259666 0.434651225805283 -0.279816955327988 0.00805962271988392 -0.480896234512329 -0.459657788276672 -0.448055058717728 -0.447696417570114 -0.427966833114624 -0.381930083036423 -0.329476833343506 -0.277174472808838 -0.222891494631767 -0.166232094168663 -0.107734046876431 -0.0472198575735092 -0.0141130676493049 0.866714477539062 1.4892852306366 1.51773679256439 1.61255323886871 1.64832639694214 1.68339872360229 1.75667071342468 2.58937788009644 3.22117328643799 3.46291828155518 3.53397345542908 3.60803556442261 3.68909406661987 4.25374317169189 4.3468132019043 4.44435453414917 4.54403448104858 4.73671627044678 4.86811637878418 5.06192541122437 5.17027950286865 5.28269910812378 5.40327167510986 5.52794885635376 5.657151222229 5.79264640808105 5.94654512405396 6.10405826568604 6.26036930084229 6.44028043746948 6.6412181854248
2.09448838233948 2.26340675354004 2.45752668380737 2.4577693939209 2.59092831611633 2.76136755943298 3.00561785697937 3.27743172645569 3.60715293884277 4.02774667739868 4.53292846679688 5.18250560760498 6.0686993598938 7.25958204269409 9.043212890625 11.6699514389038 15.747540473938 24.2826080322266 2.75567007064819 9.18924808502197 13.5571031570435 23.1997928619385 1.73671615123749 4.26952648162842 2.46629762649536 2.47113299369812 2.60188007354736 3.05610609054565 3.82053327560425 5.11606645584106 7.13705730438232 10.4071378707886 16.3563385009766 30.9400825500488 2.61887836456299 5.54310035705566 6.09432029724121 6.76195812225342 7.57031726837158 8.55201816558838 9.76718616485596 11.2814531326294 13.6536703109741 17.1970272064209 22.3890991210938 31.7161293029785 50.7122917175293 3.79783797264099 -0.525794148445129 1.32342386245728 8.47433376312256 1.14663290977478 5.72410726547241 1.37280941009521 5.52611780166626 50.2904968261719 1.41307282447815 3.04377579689026 6.46188497543335 7.46039819717407 -0.593235552310944 4.66713285446167 0.0876763388514519 0.989361107349396 -0.559992611408234 0.692635774612427 1.39825963973999 4.34761428833008 0.161402404308319 -0.333792567253113 0.657547295093536 1.56109595298767 1.14379632472992 3.19827318191528 5.55224895477295 -1.06363642215729 2.05778837203979 2.02791476249695 2.18100690841675 2.75245499610901 1.83677339553833 1.75228488445282 1.90636968612671 2.04511761665344 2.24275541305542 2.42856192588806 2.18906164169312 0.917270660400391 0.519565105438232 0.543926239013672 0.261034369468689 0.406853884458542 0.161615505814552 -0.115389056503773 0.0139335859566927 0.0167612843215466 -0.217019960284233 -0.213489472866058 -0.187734887003899 -0.135151326656342 -0.0305924136191607 0.105530858039856 0.197378024458885 0.134745717048645 -0.113816417753696 -0.0742850974202156 0.0712825506925583 0.20250515639782 0.41903829574585 0.678315401077271 0.181764379143715 -0.0553928166627884 -0.189896777272224 -0.0105594722554088 -0.0322248302400112 -0.329634964466095 -0.903317928314209 -0.882571399211884 -0.82840496301651 -0.790115356445312 -0.739627420902252 -0.520741164684296 0.175863161683083 2.11515426635742 -0.165966302156448 0.0364185646176338 -0.576516807079315 0.889055371284485 2.4312481880188 -0.63214498758316 -0.563495695590973 -0.528269648551941 -0.50422877073288 -0.492772042751312 -0.477829575538635 -0.435544699430466 -0.391239374876022 -0.340977340936661 -0.284658432006836 -0.221664980053902 -0.144500628113747 -0.0879245176911354 -0.0365040153264999 0.461639940738678 0.488296866416931 0.821093618869781 0.926312148571014 1.33263337612152 1.36751842498779 1.63183617591858 2.25737571716309 2.30559325218201 2.84222435951233 3.08777189254761 3.43781709671021 3.64001154899597 3.84340381622314 4.26296234130859 4.35465621948242 4.65172100067139 4.75081062316895 4.8883376121521 5.30394840240479 5.41656398773193 5.53630447387695 5.65936851501465 5.78907871246338 5.92416620254517 6.07081508636475 6.23674869537354 6.39409017562866 6.55976009368896 6.73245477676392 6.91311502456665
2.23350381851196 2.44073128700256 2.49341630935669 2.5524730682373 2.67021083831787 2.80524086952209 2.94434833526611 3.1092369556427 3.29445338249207 3.50096559524536 3.73412275314331 4.01099252700806 4.33080863952637 4.69628286361694 5.11454248428345 5.57481813430786 6.04479360580444 6.40841722488403 6.67551326751709 7.32950925827026 8.39403343200684 9.65832233428955 12.0239095687866 15.3672151565552 20.1626071929932 0.860040485858917 1.73865377902985 1.99628615379333 2.25057935714722 2.52744674682617 2.85640645027161 3.17139530181885 3.42909121513367 3.69016718864441 4.21071147918701 4.88283061981201 5.54803943634033 6.17151403427124 6.79122734069824 7.54052352905273 8.42828464508057 9.66586494445801 11.822039604187 15.001503944397 19.5529594421387 27.9825706481934 46.5234870910645 1.04190969467163 5.77754402160645 6.30217981338501 5.62629222869873 2.41152238845825 0.683509528636932 50.9237098693848 1.09454131126404 0.718683540821075 0.896712064743042 1.26492989063263 5.87118005752563 7.82758045196533 8.09034824371338 -0.0226270500570536 -0.679528474807739 -0.629053473472595 -0.453052192926407 7.18911123275757 -0.156492903828621 -0.419414848089218 2.51184177398682 -0.33548891544342 0.415685296058655 1.02725970745087 3.02316188812256 -0.963960587978363 -0.78892594575882 -0.773029506206512 2.06434774398804 2.0956871509552 2.10166692733765 2.24459671974182 3.13806247711182 2.05396056175232 2.26439690589905 2.49142360687256 2.64513611793518 2.89823174476624 2.90788531303406 2.19649577140808 1.29609417915344 0.273157685995102 0.334388613700867 -0.0221707932651043 -0.055283535271883 -0.140052750706673 0.00260913232341409 -0.177274256944656 -0.154197975993156 -0.167774766683578 -0.141699612140656 0.00414137123152614 0.161659225821495 0.305426090955734 0.487108260393143 0.708206713199615 1.46218991279602 -0.133279979228973 0.14204715192318 0.213220447301865 0.389938592910767 0.600652158260345 0.484959185123444 0.209453642368317 -0.0201854854822159 0.198962613940239 0.0224849823862314 -0.208415478467941 -0.793684244155884 -0.771505177021027 -0.613963425159454 -0.538469433784485 -0.453905373811722 -0.343203783035278 0.346778124570847 1.92523813247681 -0.122838489711285 0.0296156983822584 0.688982605934143 -0.774341106414795 -0.181737065315247 -0.695142805576324 -0.669729113578796 -0.640803158283234 -0.609649002552032 -0.585236191749573 -0.559700191020966 -0.530052304267883 -0.490754514932632 -0.422058820724487 -0.332197487354279 -0.270208418369293 -0.194442823529243 -0.123009771108627 0.105948746204376 0.362029165029526 0.527907252311707 1.41507029533386 1.48421883583069 1.52213227748871 2.14276337623596 3.38079023361206 2.14440679550171 2.39361882209778 2.45097947120667 2.73517656326294 2.93864607810974 3.00949025154114 3.6111524105072 3.68887782096863 4.2204213142395 4.34781932830811 4.77007532119751 4.87045431137085 5.25080013275146 5.36280155181885 5.48022747039795 5.60874319076538 5.73643398284912 5.87265539169312 6.02067947387695 6.18288278579712 6.33990478515625 6.50426435470581 6.67478275299072 6.85419416427612
1.5996789932251 2.34916949272156 1.7307356595993 1.78273665904999 1.85177993774414 1.93065714836121 2.02188062667847 2.12566471099854 2.23641681671143 2.36470055580139 2.51859617233276 2.7059485912323 2.92217373847961 3.17302703857422 3.45285487174988 3.79084587097168 4.16370725631714 4.58400106430054 4.91297388076782 5.39419507980347 6.09985971450806 7.16865205764771 9.23816967010498 12.7765007019043 3.42353272438049 2.50320053100586 1.78287160396576 2.03943634033203 2.34806370735168 2.6366400718689 2.90408730506897 3.05300235748291 3.37284851074219 3.93401527404785 4.71843290328979 5.25256109237671 5.85154294967651 6.52511882781982 7.33683729171753 8.32148170471191 9.59610939025879 11.4864282608032 14.4057474136353 18.9747734069824 27.3354473114014 45.9692192077637 3.35794258117676 20.3593559265137 29.3353118896484 7.7923731803894 0.19861102104187 39.6482238769531 22.0060348510742 0.312491804361343 9.4503059387207 0.748099505901337 2.73919677734375 0.335338920354843 3.07972168922424 0.376991480588913 1.67470514774323 3.94264459609985 7.73715209960938 0.551529407501221 2.91063213348389 0.65281218290329 1.03670275211334 4.37286758422852 1.08442389965057 1.34783291816711 4.52385711669922 2.79860138893127 6.4800009727478 3.32949161529541 0.422867000102997 0.492279052734375 2.09692430496216 6.3189754486084 6.70216846466064 7.15355396270752 7.75157928466797 8.48501396179199 9.27523040771484 10.7056665420532 12.340968132019 14.6725635528564 18.4412784576416 25.2883338928223 41.6217956542969 -0.175314694643021 0.0239687785506248 1.06557512283325 1.09883809089661 1.13334882259369 1.1656436920166 1.21284449100494 1.26609909534454 1.3199610710144 1.37840831279755 1.45342075824738 1.53089261054993 1.61406981945038 1.6869250535965 1.76735723018646 1.85090947151184 1.92238318920135 2.01889038085938 2.1041738986969 2.22355389595032 2.32977080345154 2.42948079109192 2.53683876991272 2.66301107406616 2.82023549079895 2.97544002532959 3.17802381515503 3.45045304298401 3.84745264053345 4.32168626785278 4.81044578552246 5.34095239639282 6.2480993270874 7.70936822891235 8.90450572967529 10.0986881256104 12.4807777404785 16.4881858825684 24.4512672424316 42.1456298828125 -0.861557304859161 0.784888923168182 0.850736379623413 0.923599779605865 1.00094139575958 1.08211839199066 1.15213453769684 1.54247546195984 7.60146236419678 1.24887597560883 1.87191069126129 2.08110094070435 2.34163069725037 2.62069916725159 2.85129261016846 3.04771161079407 3.28116154670715 3.53372073173523 3.80433416366577 4.01130723953247 4.19569730758667 4.37549924850464 4.71898078918457 5.1996693611145 5.88288974761963 6.75817632675171 8.06876468658447 9.74852848052979 12.1498289108276 15.9946765899658 23.268762588501 40.6604766845703 6.66310977935791 6.85742616653442 4.13676977157593 4.3746771812439 5.69322919845581 5.82300043106079 5.9610447883606 6.11745929718018 6.26441144943237 6.42721223831177 6.58868837356567 6.75436592102051 6.9350790977478
2.39428400993347 2.50464010238647 2.51480031013489 2.61090326309204 2.72221255302429 2.84271216392517 2.9744701385498 3.12701940536499 3.30367398262024 3.50131773948669 3.73393940925598 4.00231981277466 4.32164669036865 4.6873836517334 5.09405660629272 5.55819797515869 6.10176181793213 6.74059724807739 7.47844171524048 8.46280002593994 9.80792045593262 11.576807975769 14.1378364562988 18.5722370147705 30.8737525939941 0.917300283908844 2.20161080360413 1.89499115943909 2.12920475006104 2.42212986946106 2.61718320846558 2.98634195327759 3.52562379837036 3.86212134361267 4.18662881851196 4.52977085113525 4.93853092193604 5.41180324554443 5.97517824172974 6.609055519104 7.42669773101807 8.53152084350586 9.97441959381104 11.9227838516235 14.836446762085 19.6018943786621 22.3923416137695 19.2168617248535 4.55038356781006 50.9949150085449 0.137924209237099 1.37727725505829 2.64875674247742 4.05345439910889 6.68683385848999 0.129359468817711 0.620165169239044 1.94775342941284 4.31585025787354 1.22137331962585 2.98400163650513 4.40230178833008 0.700500190258026 0.793663680553436 2.54272818565369 3.40736174583435 8.88173389434814 6.37012386322021 8.10829067230225 21.334623336792 4.52278709411621 1.95915067195892 1.06224858760834 5.83791971206665 4.79851388931274 -0.958071291446686 -0.843525350093842 -0.606142222881317 3.79091191291809 3.97355246543884 4.21245050430298 4.55078172683716 5.00006341934204 5.35915994644165 6.37096357345581 7.49577283859253 9.76543045043945 16.3572311401367 2.39339685440063 0.90332555770874 1.13455510139465 1.17370283603668 1.2347913980484 1.28171157836914 1.32582724094391 1.37205386161804 1.43327927589417 1.50237047672272 1.58089530467987 1.65416479110718 1.73387908935547 1.8264297246933 1.92273437976837 2.012855052948 2.12084102630615 2.21724319458008 2.29933214187622 2.38689041137695 2.50720477104187 2.619300365448 2.74808621406555 2.88109636306763 3.02904009819031 3.19954442977905 3.38300061225891 3.63660311698914 3.8994824886322 4.2204327583313 4.63015556335449 5.16435146331787 5.85844755172729 6.87057113647461 8.45934295654297 9.47677040100098 10.8820838928223 13.3121662139893 17.0291500091553 25.1881294250488 43.5487785339355 -1.03484213352203 0.625257730484009 1.0046797990799 1.57481491565704 2.3054096698761 3.32358551025391 5.04371118545532 12.6143388748169 0.627581775188446 0.857045471668243 1.58058083057404 1.81740283966064 2.03507947921753 2.32793855667114 2.56165671348572 2.76467680931091 3.00093913078308 3.2460310459137 3.69809293746948 3.89724469184875 4.25844669342041 4.7416877746582 5.75232219696045 7.54631757736206 10.8306674957275 17.5654296875 33.6294212341309 3.24190235137939 22.4831581115723 5.87362194061279 7.85077047348022 10.6924057006836 12.930380821228 8.95849704742432 3.94444751739502 4.04953050613403 4.12012434005737 4.27662992477417 5.7895450592041 5.94592666625977 6.09210157394409 6.25090837478638 6.41405439376831 6.58324813842773 6.76234674453735
1.02886021137238 1.90732824802399 1.91775786876678 1.94576692581177 1.97662770748138 2.01350021362305 2.05292344093323 2.09588932991028 2.14826774597168 2.20303964614868 2.2629222869873 2.32915878295898 2.39677810668945 2.46880459785461 2.54064464569092 2.60930466651917 2.68047261238098 2.82026839256287 3.0241961479187 3.31052708625793 3.64792418479919 3.9638683795929 4.10892820358276 4.20163488388062 4.51708030700684 4.99162101745605 5.10905742645264 2.69223594665527 2.78722643852234 3.09838676452637 3.42568898200989 4.05318546295166 4.73650169372559 5.28838062286377 5.82755708694458 6.4164662361145 7.08823919296265 7.91735553741455 8.90835666656494 10.136417388916 11.8286237716675 14.193772315979 17.5614490509033 22.9135112762451 32.3849792480469 51.7272415161133 0.567750573158264 50.6784400939941 0.676028847694397 1.49852192401886 3.07684779167175 3.93756246566772 2.16574430465698 1.85284042358398 0.771880328655243 0.866246044635773 0.945459127426147 3.20227408409119 5.15449953079224 6.70180177688599 1.59613382816315 1.60787713527679 2.27427649497986 2.81070971488953 3.70760726928711 4.13201904296875 4.48636198043823 8.85119915008545 11.2368850708008 19.7938747406006 1.60995626449585 1.74624884128571 1.95840978622437 7.80375814437866 11.2533779144287 20.6009540557861 1.37340819835663 1.80787944793701 3.05694365501404 7.50612449645996 7.98041772842407 8.54825019836426 9.30338478088379 10.1621618270874 11.1644449234009 12.5931205749512 18.0983257293701 13.5263557434082 16.8193206787109 19.7535915374756 45.5541915893555 0.626531183719635 1.01521480083466 2.36259651184082 2.45236420631409 2.54514956474304 2.65255880355835 2.7790105342865 2.90840148925781 3.04473519325256 3.1853711605072 3.33451509475708 3.49624824523926 3.6623215675354 3.85330748558044 4.04755115509033 4.22444486618042 4.39079236984253 4.61223936080933 4.83848333358765 5.11854600906372 5.42685222625732 5.78656339645386 6.20808267593384 6.67700481414795 7.14112901687622 7.71962070465088 8.45673274993896 9.37670516967773 10.5801343917847 12.2501678466797 14.6350936889648 18.2191848754883 21.5528869628906 27.0625438690186 36.9209022521973 55.8603477478027 -2.18028783798218 -1.23168325424194 -1.18988919258118 4.19154024124146 5.29416656494141 6.72694253921509 8.67427635192871 11.5319776535034 17.2247142791748 34.6277770996094 -0.787715196609497 0.30534490942955 0.864523589611053 1.06202161312103 2.26950860023499 1.14212739467621 1.60039639472961 1.79883861541748 1.97584545612335 2.11450672149658 2.28515243530273 2.40201926231384 2.52233099937439 2.7726731300354 3.68366098403931 5.27077007293701 12.3215913772583 5.997633934021 19.0212516784668 2.18172669410706 4.36477565765381 7.72226190567017 10.9947519302368 12.2354164123535 22.0585079193115 4.95464134216309 7.02376079559326 11.2435989379883 4.24848508834839 4.85064268112183 5.62818670272827 5.76999855041504 5.90493583679199 6.05069255828857 6.20571804046631 6.36358070373535 6.53250694274902
1.71652328968048 1.78336238861084 1.85366976261139 1.8957257270813 1.93741452693939 1.97154057025909 2.0099310874939 2.05311131477356 2.10137796401978 2.13281655311584 2.17977619171143 2.2376971244812 2.30082368850708 2.37042808532715 2.44109606742859 2.51168656349182 2.58223271369934 2.63737964630127 2.70451831817627 2.81950831413269 3.13664603233337 3.51234865188599 3.80094432830811 3.98471593856812 4.26913738250732 4.63863611221313 5.23861598968506 2.91524291038513 2.77152276039124 2.92420077323914 3.10141611099243 3.68682599067688 4.45023202896118 5.07290172576904 5.59885168075562 6.17837810516357 6.83265972137451 7.63946437835693 8.57705497741699 9.77793788909912 11.4396734237671 13.7293186187744 17.002815246582 22.2549209594727 31.4929885864258 50.8181915283203 0.78752464056015 0.795670092105865 1.4002673625946 10.4301748275757 3.9632511138916 4.42635345458984 6.09343862533569 10.5353221893311 0.868860840797424 0.917070925235748 0.984485983848572 1.17222380638123 4.86674880981445 1.8770866394043 6.22973537445068 1.97729551792145 2.02811360359192 2.22154879570007 2.63787841796875 4.73941707611084 6.29653167724609 10.7789449691772 8.40818023681641 3.16624283790588 3.25088810920715 5.03700828552246 5.13949775695801 10.521411895752 22.4727058410645 3.42362403869629 7.60037803649902 2.03032302856445 5.05764770507812 3.47404074668884 9.07325649261475 10.2190380096436 11.7344732284546 14.1816158294678 17.7271060943604 24.454704284668 28.5479335784912 8.06578636169434 9.87654113769531 21.1798419952393 43.525463104248 -0.360767066478729 -0.128228843212128 -0.0825550705194473 1.43635594844818 1.50669753551483 1.58295130729675 1.66891443729401 1.7668342590332 1.86305367946625 1.97025680541992 2.04805064201355 2.15031147003174 2.26352310180664 2.39459037780762 2.51120924949646 2.62444853782654 2.70000910758972 2.80009245872498 2.90625333786011 3.06789374351501 3.25123286247253 3.49710321426392 3.74613189697266 3.94734358787537 4.20652484893799 4.52968645095825 4.87821674346924 5.31881189346313 5.8993182182312 6.83736228942871 8.19696426391602 10.1499176025391 11.4199914932251 13.4956836700439 17.0594711303711 23.866382598877 26.138916015625 -1.13960886001587 -0.589072227478027 1.07906031608582 1.44886183738708 2.08445191383362 2.73502063751221 3.63261580467224 6.16940975189209 15.0865669250488 1.14750802516937 2.22057175636292 2.63284039497375 3.05540537834167 3.41468930244446 4.50877618789673 6.37321710586548 19.9753189086914 3.72496271133423 7.78035926818848 8.91392993927002 10.4072980880737 12.5269632339478 16.6363105773926 25.3340435028076 44.9571914672852 0.141614124178886 0.213238179683685 0.948535442352295 6.69712257385254 11.6112089157104 25.9682559967041 6.52713108062744 12.7772569656372 4.69209814071655 3.66324067115784 3.70991539955139 3.93574976921082 4.17370748519897 4.32794666290283 5.66673803329468 5.81038999557495 5.94760799407959 6.10662651062012 6.27378273010254 6.44586610794067 6.62225866317749
1.9300297498703 1.99380922317505 2.05872559547424 2.11831068992615 2.17511010169983 2.22228527069092 2.27426791191101 2.33712148666382 2.40768194198608 2.50559759140015 2.57310056686401 2.63497567176819 2.71585249900818 2.80141067504883 2.89086842536926 2.99027681350708 3.09669899940491 3.20319676399231 3.30663371086121 3.43066096305847 3.57853603363037 3.72513914108276 3.8556501865387 4.18536376953125 4.5766224861145 4.67019414901733 4.95475769042969 3.90593862533569 4.17582178115845 3.97978925704956 4.28327369689941 5.02490282058716 6.31660079956055 7.56243467330933 8.72036170959473 10.1147651672363 11.8450136184692 14.222638130188 17.597562789917 22.955358505249 32.6642074584961 52.1679649353027 0.0294414758682251 51.1783561706543 0.298130601644516 1.58749783039093 6.18910932540894 12.2324495315552 1.19679141044617 1.26740634441376 7.1065502166748 14.9853010177612 9.20061492919922 4.86202383041382 1.31514692306519 1.33304274082184 1.40063190460205 1.83497214317322 2.24984192848206 2.31569027900696 2.36397290229797 2.39658522605896 2.51612091064453 3.02639722824097 3.58455109596252 3.90060901641846 8.96041870117188 7.94955635070801 3.9604172706604 5.91143226623535 8.70008945465088 13.7804841995239 2.85033226013184 4.9344654083252 2.78418350219727 2.88249588012695 3.14276623725891 3.33603239059448 5.80251121520996 8.81346321105957 3.94760513305664 10.0308685302734 11.8810939788818 14.9901323318481 20.9885025024414 35.1888847351074 9.0502233505249 15.8409423828125 18.1808471679688 19.9366207122803 25.5939559936523 34.9871635437012 54.3700866699219 -1.27204084396362 0.438086152076721 1.05792105197906 1.11229598522186 1.16629886627197 1.25388014316559 1.34727799892426 1.43700289726257 1.50090265274048 1.56083977222443 1.64258062839508 1.7371187210083 1.83878684043884 1.93177759647369 2.00049233436584 2.05095171928406 2.1140251159668 2.23563003540039 2.39192986488342 2.55372357368469 2.68953037261963 2.88163733482361 3.09288120269775 3.34572076797485 3.56273770332336 3.83380103111267 4.17388725280762 4.92348623275757 6.07364845275879 7.63918876647949 8.46027374267578 9.85494709014893 12.2695693969727 17.0237693786621 28.8656406402588 -0.325260251760483 -0.223701223731041 1.48897004127502 1.74734723567963 2.03292346000671 2.26023387908936 2.47029590606689 2.80890011787415 3.34335517883301 3.66114163398743 4.40510606765747 5.30197477340698 6.35337209701538 8.4340181350708 11.1584529876709 18.0620861053467 36.9651145935059 1.28709256649017 8.39849472045898 10.1667032241821 13.8396100997925 17.9149169921875 26.3515739440918 46.1367683410645 -0.368125736713409 -0.567080736160278 0.12831799685955 0.29521456360817 3.95953631401062 13.3451652526855 14.7021207809448 16.2027435302734 2.55859661102295 2.85521984100342 3.14703869819641 3.470858335495 4.40369510650635 3.52138018608093 4.57655382156372 4.69251489639282 5.54441404342651 5.67406177520752 5.8293604850769 5.98284006118774 6.14210367202759 6.30333137512207
1.75079345703125 1.80153727531433 1.85452437400818 1.91272509098053 1.96104121208191 2.00674533843994 2.05506873130798 2.10803437232971 2.16664290428162 2.22914862632751 2.30222630500793 2.37793922424316 2.45136094093323 2.52335047721863 2.59549736976624 2.66816139221191 2.74824690818787 2.84475064277649 2.94544196128845 3.05262327194214 3.17368769645691 3.30613017082214 3.64573693275452 4.29330921173096 4.81073570251465 4.93292093276978 5.58622455596924 3.369145154953 3.45809006690979 3.52875757217407 3.57631182670593 3.97772431373596 4.93500280380249 5.96985006332397 7.12263345718384 8.14882564544678 9.36868286132812 10.9929370880127 13.2064762115479 16.4187450408936 21.5121383666992 30.6966094970703 49.2906227111816 2.34993982315063 6.78009939193726 0.917799174785614 11.1056652069092 0.813647866249084 1.57724726200104 4.00281810760498 6.2529091835022 7.58986616134644 23.490909576416 1.17022705078125 5.19930696487427 1.27668607234955 3.35070753097534 2.32589530944824 1.38229715824127 7.77469110488892 1.94101715087891 2.06243324279785 3.08942151069641 5.5628662109375 6.01491975784302 2.41076064109802 9.53733062744141 8.54281806945801 3.01230335235596 4.13256359100342 6.65537309646606 8.8401403427124 9.19877910614014 11.4609727859497 4.50602960586548 3.42170333862305 2.36467838287354 3.16985201835632 15.2697639465332 4.05622577667236 5.22090196609497 4.77052164077759 12.0733003616333 13.4182367324829 15.1526050567627 19.0865612030029 31.9854145050049 16.5013751983643 34.8107414245605 49.7628936767578 1.45969498157501 37.7114486694336 9.22995281219482 17.4351081848145 48.6037902832031 -1.09649407863617 1.01723027229309 1.07487344741821 1.15345323085785 1.24382424354553 1.33212983608246 1.4044508934021 1.45731794834137 1.52039349079132 1.58842599391937 1.67557168006897 1.7600120306015 1.8403332233429 1.90250682830811 2.0022075176239 2.10351467132568 2.1761908531189 2.32130765914917 2.49189043045044 2.70222473144531 2.91620635986328 3.16968607902527 3.36602592468262 3.62052869796753 3.92289328575134 4.56982135772705 5.70889759063721 7.25975465774536 8.01544570922852 9.22020530700684 11.3588991165161 15.684362411499 27.1479835510254 0.150647014379501 0.434251636266708 1.84123921394348 2.0223433971405 2.19014024734497 2.35331916809082 2.51814699172974 2.71159362792969 2.97958517074585 3.18022704124451 3.74477672576904 5.92216730117798 11.4366655349731 3.42727160453796 4.75623750686646 5.8592357635498 7.54796648025513 9.1550235748291 10.873140335083 14.4308471679688 19.2112102508545 27.7320671081543 46.9658317565918 -1.89286994934082 3.29756617546082 10.3388109207153 14.4711742401123 21.2294578552246 40.2540092468262 0.760681688785553 3.35048627853394 11.8615121841431 15.8166351318359 8.62701225280762 2.90628671646118 3.05471587181091 3.21411752700806 7.51340579986572 3.32969284057617 4.54508590698242 5.13134765625 5.2667293548584 5.42405223846436 6.04767942428589 9.08731174468994 17.5999050140381
1.60051882266998 1.64562368392944 1.69540011882782 1.75461387634277 1.81190156936646 1.8676084280014 1.92271995544434 1.98288309574127 2.04822015762329 2.11667633056641 2.18325018882751 2.24788546562195 2.32626271247864 2.41637063026428 2.4987678527832 2.57790732383728 2.66451573371887 2.75356984138489 2.86599826812744 3.00363826751709 3.23835206031799 3.46206164360046 3.74211883544922 4.19750785827637 5.3873815536499 7.03681993484497 4.01747703552246 4.13905954360962 4.81345891952515 5.72829627990723 7.13414907455444 15.5661497116089 2.9370129108429 4.65501499176025 6.23861837387085 8.23266506195068 9.99641036987305 12.046688079834 15.0360460281372 19.7968158721924 28.4729824066162 47.5386810302734 1.32732903957367 1.68846797943115 8.58322525024414 1.66070234775543 2.48895382881165 2.59800386428833 0.699477910995483 11.5001497268677 2.01737380027771 6.38108015060425 3.4853892326355 8.2462854385376 9.6828498840332 1.14521789550781 2.12323546409607 1.21735870838165 2.1049964427948 1.48990309238434 1.55949008464813 1.6399906873703 1.95099794864655 7.10551261901855 2.72463393211365 2.97822690010071 11.0948781967163 6.34169006347656 3.21453189849854 4.3961386680603 5.09081792831421 6.03292512893677 11.3523893356323 9.41643524169922 10.5031337738037 1.67738521099091 4.01418781280518 3.05087375640869 12.8569259643555 4.95280408859253 14.6692705154419 3.67662763595581 3.43496918678284 14.4991016387939 17.3910446166992 22.007776260376 30.0357074737549 46.9213180541992 6.74463558197021 13.8833618164062 -0.636724948883057 28.3345985412598 -0.0232154317200184 2.40569424629211 0.652392745018005 0.707907795906067 0.770903050899506 0.844210743904114 0.903208673000336 0.988294959068298 1.0583872795105 1.12169921398163 1.16889202594757 1.2190934419632 1.25676965713501 1.30667614936829 1.36464977264404 1.44539403915405 1.53025567531586 1.60593283176422 1.63110637664795 1.71552729606628 1.83867716789246 1.97217750549316 2.15810132026672 2.34673476219177 2.58467531204224 2.7688295841217 2.97936701774597 3.27445411682129 3.75333666801453 4.59553527832031 5.85807275772095 7.08536767959595 7.75964403152466 9.21925640106201 14.2476682662964 10.8483934402466 -0.0299088340252638 0.507659673690796 1.2825323343277 1.45089828968048 1.59258878231049 1.75076282024384 1.86547350883484 1.99747788906097 2.24398922920227 2.41996288299561 2.6685950756073 2.93050479888916 3.13480234146118 3.26243662834167 3.79511952400208 4.23263025283813 12.5426683425903 4.70786285400391 10.7469501495361 18.4271850585938 34.5579299926758 0.154059275984764 9.94191455841064 0.871421456336975 3.0905909538269 4.94112539291382 5.4935474395752 6.39483547210693 7.77990198135376 11.1885900497437 22.1471862792969 8.89613151550293 14.5381498336792 14.5562982559204 2.33794713020325 2.85037851333618 3.19387626647949 3.22662591934204 3.28633379936218 4.56668376922607 5.00963687896729 5.14390563964844 5.35444259643555 7.26568269729614 10.8556985855103 21.175443649292
1.55704963207245 1.57804191112518 1.61990976333618 1.67838966846466 1.76869320869446 1.86666703224182 1.96404731273651 2.06660008430481 2.17086243629456 2.30677175521851 2.44945859909058 2.59115195274353 2.75537014007568 2.94420194625854 3.14663219451904 3.34785866737366 3.60009551048279 3.87882828712463 4.22891902923584 4.63614940643311 5.19293546676636 5.96043157577515 6.89619636535645 8.05879211425781 9.73346710205078 10.8648853302002 13.8608531951904 25.6897277832031 2.15520191192627 8.29718017578125 9.17812061309814 13.3337097167969 1.69890189170837 5.29854583740234 6.3647608757019 7.89657974243164 10.0104999542236 12.0251693725586 15.0004186630249 19.7206707000732 28.3919105529785 47.5669975280762 1.47238028049469 3.77434659004211 5.97201824188232 0.915033221244812 2.35621166229248 0.998706698417664 1.63579487800598 9.82016754150391 2.11985039710999 3.01636791229248 3.51225113868713 4.30662536621094 4.48929882049561 5.87905597686768 6.49042272567749 14.2481803894043 21.0589504241943 2.50826954841614 1.25451469421387 1.81275987625122 1.89093101024628 2.00601959228516 2.9165666103363 4.76238632202148 18.8939342498779 2.98884725570679 4.90999031066895 7.35057878494263 7.43689966201782 10.5172920227051 20.5116100311279 2.01937675476074 2.06752824783325 3.29901933670044 7.52428913116455 3.74889850616455 11.8266448974609 4.12282943725586 4.60260248184204 9.71388339996338 4.76063442230225 5.5050835609436 13.4934453964233 15.2974462509155 17.5934371948242 20.5399379730225 28.0578651428223 23.5409374237061 23.7777481079102 -1.06847822666168 -0.345113217830658 0.500166177749634 0.525490999221802 0.551459312438965 0.570688486099243 0.581132471561432 0.641567707061768 0.695991039276123 0.745858252048492 0.808253526687622 0.845139741897583 0.873433530330658 0.891061007976532 0.91111296415329 0.956292033195496 1.02291417121887 1.04269325733185 1.1015397310257 1.17518067359924 1.23500072956085 1.3158552646637 1.41516828536987 1.55846726894379 1.71227312088013 1.91874492168427 2.07005143165588 2.24362230300903 2.47964835166931 2.83304309844971 3.29839015007019 4.01308107376099 5.31355047225952 6.42206716537476 7.15568780899048 8.61575984954834 12.125186920166 0.543084859848022 0.660855233669281 1.30535733699799 1.44076180458069 1.62649297714233 1.85339331626892 1.99686741828918 2.23716855049133 2.57474184036255 2.81339001655579 3.12729716300964 3.5823986530304 4.09246826171875 5.53047704696655 11.4715719223022 3.9399688243866 17.6971340179443 1.42448174953461 13.2314710617065 4.34871435165405 15.7834424972534 15.7761840820312 1.11059713363647 1.38975834846497 2.26471590995789 1.00132048130035 1.22214257717133 1.55608463287354 2.10679984092712 3.62834811210632 4.99456691741943 12.3423929214478 1.47315227985382 27.1317329406738 2.078204870224 24.7287826538086 2.82517910003662 3.47652649879456 3.67881178855896 7.66379261016846 10.6248083114624 13.4927291870117 17.9238529205322 25.9670944213867 44.5233497619629 4.11969041824341
1.69036686420441 1.69242036342621 1.71032881736755 1.75792050361633 1.87980055809021 2.03360629081726 2.19986033439636 2.37888836860657 2.55232238769531 2.7263970375061 2.91116762161255 3.09841656684875 3.31238102912903 3.55834245681763 3.83269047737122 4.13240957260132 4.47248792648315 4.88953113555908 5.36211585998535 5.98213815689087 6.78719043731689 7.85371112823486 9.24539661407471 11.3960132598877 13.4937543869019 19.232027053833 33.726749420166 1.76856112480164 5.28376293182373 3.97469019889832 3.97469425201416 4.05047273635864 4.32646226882935 4.75041246414185 5.40837144851685 6.41580104827881 8.25038719177246 10.7137212753296 13.6182851791382 17.8171901702881 25.9554176330566 44.7001457214355 6.55860757827759 14.7569408416748 5.16432332992554 1.05622458457947 6.51198291778564 1.25426471233368 4.71305322647095 8.13752269744873 1.73931574821472 2.15067458152771 3.72541260719299 5.01573085784912 6.02931261062622 10.0865459442139 8.59155750274658 9.50123119354248 27.1698741912842 1.7404682636261 1.75628983974457 1.80822253227234 1.84347283840179 2.63703560829163 2.88617587089539 4.69974803924561 6.13304233551025 3.0809907913208 8.2813138961792 5.10120105743408 6.97207260131836 8.73577690124512 16.8843822479248 2.986891746521 3.8635368347168 5.00078535079956 16.15114402771 4.12926959991455 4.93666791915894 6.30671072006226 7.67505502700806 6.56131982803345 6.66309642791748 14.9346323013306 7.29083442687988 17.7148952484131 20.3829212188721 23.9878463745117 29.0962657928467 36.8940010070801 51.3339996337891 -1.53905236721039 5.82884836196899 0.150920763611794 0.697723984718323 0.319154798984528 0.320895493030548 0.335323125123978 0.355107367038727 0.604810833930969 0.638167142868042 0.663431286811829 0.684564709663391 0.692058682441711 0.896240055561066 1.56656920909882 1.65965342521667 1.68407547473907 1.71708273887634 1.76604676246643 1.81407594680786 1.86259889602661 1.90879237651825 1.96163964271545 2.02614665031433 2.09314227104187 2.17383360862732 2.23265361785889 2.29588198661804 2.36531543731689 2.45287036895752 2.53105616569519 2.61489963531494 3.17667698860168 4.55798721313477 5.05319929122925 6.06566667556763 9.49658489227295 2.66406393051147 2.80991911888123 3.33300280570984 3.51087260246277 3.72786784172058 3.9624936580658 4.17896318435669 4.43713760375977 4.69931983947754 4.95858430862427 5.24750995635986 5.57809972763062 5.88708209991455 6.35169887542725 6.96442317962646 7.96305561065674 8.26741790771484 16.8846893310547 7.4486255645752 8.72372913360596 16.5658435821533 21.4211845397949 31.6023712158203 29.0273780822754 4.50356388092041 0.0714054927229881 1.09947085380554 4.1785831451416 8.30109596252441 12.4221458435059 3.0259108543396 -0.0343950279057026 0.195204272866249 1.54367160797119 18.9610900878906 1.78323864936829 2.03813982009888 2.46365261077881 7.23122549057007 13.1326522827148 16.2436466217041 21.6167621612549 30.9265995025635 49.9419326782227 2.9541118144989 11.3127174377441
2.32218766212463 2.34566068649292 2.37493419647217 2.43540501594543 2.5816125869751 2.80007719993591 3.06725287437439 3.37355589866638 3.68730020523071 4.01648378372192 4.36471652984619 4.73003149032593 5.14283466339111 5.63459157943726 6.21335554122925 6.89992332458496 7.71303796768188 8.74510765075684 10.1086444854736 11.9956378936768 14.7731847763062 19.2145824432373 26.958158493042 43.3448867797852 0.67241358757019 3.70203757286072 4.5016713142395 3.73428297042847 3.74071931838989 3.75781202316284 3.82039356231689 3.96989631652832 4.25365161895752 4.72565746307373 5.52220106124878 6.70152425765991 8.54181957244873 11.1397342681885 14.3767929077148 19.3479156494141 28.0733375549316 47.1156730651855 4.17982196807861 2.78077507019043 0.863311529159546 0.376951187849045 3.32539916038513 0.574558556079865 4.71283626556396 1.10851860046387 1.10903871059418 1.31287550926208 2.2948853969574 4.67919397354126 4.21522235870361 3.50050592422485 4.0228385925293 2.65541124343872 3.9067542552948 11.6143369674683 2.83227109909058 8.41438770294189 0.94586718082428 3.35943388938904 2.63904595375061 3.33927845954895 4.21100187301636 4.44469738006592 6.7280216217041 4.86465692520142 7.20550966262817 10.1333379745483 23.1832408905029 0.835488438606262 4.66093158721924 11.1168766021729 16.2908096313477 1.17393815517426 1.20748007297516 2.57328534126282 10.0902318954468 5.97862863540649 11.9616565704346 12.2204189300537 1.52147090435028 2.17932868003845 11.8679676055908 13.6196880340576 16.3185997009277 19.9469547271729 30.9081611633301 11.7987833023071 0.285543620586395 9.47410774230957 1.01377975940704 1.08729255199432 1.32779598236084 1.39557206630707 1.45478403568268 1.50106859207153 1.57325637340546 1.63520455360413 1.68800592422485 1.75259923934937 1.83916687965393 2.03914046287537 2.24391865730286 2.38871335983276 2.43716478347778 2.4911584854126 2.54777908325195 2.61005902290344 2.67402744293213 2.79943943023682 3.02668356895447 3.28606009483337 3.60945725440979 3.94448232650757 4.30756902694702 4.73225831985474 5.33819770812988 6.02235651016235 6.90761232376099 8.25772857666016 10.3925113677979 12.7539157867432 20.4988822937012 13.6471729278564 14.9830656051636 2.70675206184387 4.67609310150146 4.85701036453247 5.10358190536499 5.38809013366699 5.68913888931274 5.99762296676636 6.30396175384521 6.60077714920044 6.972008228302 7.39522361755371 7.85331249237061 8.41972637176514 9.08820819854736 9.92722320556641 10.8753128051758 11.8347606658936 12.9316148757935 15.234790802002 18.143970489502 25.2862682342529 42.9372787475586 21.6424102783203 9.66826629638672 6.65928411483765 -2.39488053321838 -0.768182694911957 12.7044095993042 2.30200409889221 -1.23721885681152 -0.635037124156952 0.317336946725845 13.7790699005127 0.467132329940796 1.11975657939911 2.53836345672607 7.19101667404175 16.5108470916748 41.603816986084 7.27246427536011 43.1094055175781 18.7528591156006 8.68354034423828 1.6059912443161 2.48574757575989
7.28128433227539 7.93476057052612 9.23931884765625 11.1768054962158 14.0030975341797 20.6694221496582 39.1560974121094 0.523843109607697 2.88047957420349 3.23150658607483 3.61752867698669 3.99609518051147 4.4043550491333 4.89510822296143 5.49915170669556 6.20346784591675 7.06835842132568 8.19920444488525 9.74932193756104 11.9776926040649 15.4051990509033 21.3954010009766 36.7408294677734 1.34310305118561 3.55838656425476 3.71923613548279 3.85768604278564 3.97555327415466 3.87291622161865 3.89583659172058 3.97008681297302 4.10139846801758 4.29145336151123 4.60750293731689 5.22211122512817 6.1112585067749 7.32244634628296 8.95809650421143 10.8863506317139 13.9005756378174 18.7169914245605 33.8846702575684 20.3815155029297 11.1906385421753 0.0753648653626442 0.645411908626556 0.240682184696198 0.519432067871094 0.591515600681305 0.803447127342224 0.839542746543884 7.52555418014526 1.4404468536377 5.69263792037964 11.1031923294067 1.48135352134705 2.11625027656555 2.27123260498047 2.35998296737671 2.78309679031372 2.94917988777161 3.22496271133423 6.66113662719727 8.40324401855469 8.87620830535889 4.22956132888794 6.04712104797363 0.643149554729462 2.49678683280945 3.36821174621582 4.17310810089111 4.18680763244629 6.48278713226318 7.33583927154541 18.0110054016113 1.00276875495911 7.54850053787231 0.810857594013214 0.948563396930695 1.01906001567841 9.36837005615234 4.53941345214844 8.71408748626709 12.3010654449463 22.0409908294678 1.27964687347412 5.90139627456665 22.8986797332764 36.7830009460449 4.03226613998413 11.5851612091064 16.6641826629639 11.5404434204102 29.8323841094971 -0.574315905570984 0.117788337171078 0.15778161585331 0.234960973262787 0.395729333162308 0.575928032398224 0.630970060825348 0.648080110549927 0.761352837085724 0.813707768917084 1.78784036636353 2.71552038192749 3.18249797821045 3.59508347511292 3.66563272476196 3.74409317970276 3.83128309249878 3.92057061195374 4.0159068107605 4.12161827087402 4.23574066162109 4.35783958435059 4.49241352081299 4.62599515914917 4.75315237045288 4.88783407211304 5.0603175163269 5.22717618942261 5.40583944320679 5.62534093856812 5.88845872879028 6.13452816009521 6.81530714035034 6.25870227813721 6.6103253364563 6.81680393218994 7.06207466125488 7.31117582321167 7.63602018356323 8.03236198425293 8.46460437774658 8.91653347015381 9.37723731994629 9.84392356872559 10.3752689361572 10.9626235961914 11.6503877639771 12.4490242004395 13.3405208587646 14.3810653686523 15.4636421203613 16.3643074035645 17.3412990570068 19.4067420959473 23.5598239898682 28.5095920562744 39.026065826416 37.8705711364746 20.6004695892334 18.5806980133057 -0.550829589366913 -3.41083025932312 16.0572624206543 4.17584085464478 -3.06289625167847 -2.74519181251526 -1.02927207946777 -0.378611475229263 0.32802626490593 1.34417140483856 2.4803774356842 17.194091796875 4.66152048110962 20.5588970184326 4.9113712310791 7.84284210205078 14.2068901062012 20.1603622436523 1.18803381919861 1.72476065158844
3.45560884475708 1.83174121379852 1.89795696735382 1.95902240276337 2.10725545883179 1.53360223770142 1.65090429782867 1.73178696632385 1.84436130523682 1.96832382678986 2.10105872154236 2.22079348564148 2.32601976394653 2.44085550308228 2.57033801078796 2.68036961555481 2.77563214302063 2.86776041984558 2.94724583625793 2.95612835884094 2.98778510093689 3.15268278121948 3.29265999794006 3.40366721153259 3.57091975212097 3.72407650947571 3.84211540222168 3.8894829750061 3.90128350257874 3.91549062728882 3.96638798713684 4.04627466201782 4.19661617279053 4.43927526473999 5.03679227828979 5.92353200912476 7.17444849014282 8.71870422363281 10.5135641098022 13.0260953903198 16.6879253387451 22.2465534210205 31.8241004943848 51.4583625793457 0.927357614040375 0.0237374175339937 2.28741097450256 8.64462089538574 0.309615403413773 0.356374949216843 0.669871687889099 0.721195757389069 1.71449136734009 7.42610597610474 1.75406956672668 2.45443868637085 3.10405778884888 5.17150449752808 2.67409205436707 3.19306659698486 4.0359582901001 5.53798961639404 7.85331392288208 14.2981233596802 27.3906574249268 0.43023744225502 1.50014090538025 3.09828615188599 3.22324895858765 4.77240610122681 4.20920324325562 4.84776306152344 7.55346393585205 9.3791446685791 19.5479526519775 2.30018758773804 -0.23598524928093 0.41252264380455 -0.0273631010204554 0.831800043582916 4.11583757400513 3.78787541389465 4.86360120773315 6.27358531951904 11.3471183776855 18.0847473144531 -0.215938568115234 7.20837211608887 7.61557769775391 9.34926128387451 7.74994993209839 5.26962232589722 2.95313286781311 2.72146201133728 0.920848786830902 0.20883671939373 0.271955519914627 0.290636360645294 0.418975532054901 0.632863938808441 0.827652096748352 0.762958526611328 0.827053785324097 1.08653807640076 2.18673610687256 3.23227286338806 3.65003418922424 3.73850226402283 3.8147132396698 3.89462184906006 3.98370170593262 4.08195018768311 4.18410205841064 4.30371999740601 4.42058801651001 4.54830980300903 4.6833643913269 4.82044458389282 4.95866632461548 5.11125373840332 5.29801464080811 5.48833799362183 5.69377279281616 5.93279027938843 6.20177316665649 8.50070095062256 13.4995985031128 6.33444261550903 7.11309099197388 7.33501482009888 7.55782699584961 7.83724069595337 8.2045316696167 8.62719821929932 9.08756923675537 9.56400108337402 10.0740585327148 10.6223039627075 11.2227220535278 11.9078550338745 12.7125701904297 13.6367530822754 14.7201471328735 15.6107950210571 17.3398952484131 18.5513401031494 19.868558883667 22.7265682220459 27.1703224182129 33.6249008178711 42.1267318725586 41.1129341125488 19.0626029968262 -0.468540519475937 4.05690670013428 -3.74000787734985 -2.99699544906616 -3.78112244606018 -3.21176266670227 -2.79180026054382 -2.03521490097046 -1.17977273464203 -0.331980377435684 1.04541993141174 2.97572422027588 7.63786602020264 4.64847850799561 6.60436820983887 5.68558216094971 8.24715328216553 7.83986330032349 1.13180661201477 1.45040988922119 1.55242240428925
2.10741925239563 2.07872629165649 2.08044862747192 2.47068166732788 2.36110210418701 1.66213607788086 1.71458435058594 1.77747058868408 1.85370707511902 1.97987580299377 2.15022778511047 2.32780957221985 2.50794887542725 2.72251796722412 2.96544981002808 3.18560123443604 3.56966328620911 3.65687298774719 4.49049139022827 10.5999383926392 3.2491819858551 4.2745361328125 4.51873159408569 4.84904193878174 5.24311494827271 5.67216777801514 6.0852632522583 6.50337266921997 7.02055644989014 7.70651865005493 8.55473232269287 9.76348495483398 12.0060377120972 12.0688171386719 31.7911262512207 1.93200516700745 7.81649017333984 9.78410911560059 12.0677585601807 15.5350685119629 21.3241214752197 31.4828243255615 51.3119735717773 4.85771369934082 0.324276626110077 0.460746794939041 0.971986889839172 4.82635068893433 1.79689240455627 1.71259415149689 6.63803291320801 0.519510805606842 0.647976458072662 8.05648517608643 1.27024018764496 1.31443119049072 2.70596790313721 1.34814858436584 1.99275076389313 6.08688020706177 1.41346275806427 1.48410892486572 1.55430507659912 3.71738386154175 1.58462989330292 4.91100454330444 7.64310741424561 2.5197114944458 9.40682125091553 1.83680021762848 2.68014121055603 4.61878681182861 11.5417861938477 2.00314784049988 8.99409294128418 5.24981164932251 11.195502281189 2.35706543922424 2.045330286026 3.17036128044128 3.72318482398987 3.84828305244446 6.94790458679199 9.09364128112793 16.5606498718262 19.2449512481689 4.01794672012329 7.31985425949097 32.8549308776855 49.980094909668 0.0432649217545986 7.0289888381958 4.19405651092529 3.02562212944031 1.15875220298767 1.1663943529129 1.2392646074295 1.30171632766724 1.35114920139313 1.39161467552185 1.46306884288788 1.4879013299942 1.633176445961 1.71529054641724 2.1355459690094 3.93987822532654 4.01073408126831 4.09673643112183 4.18980312347412 4.27974653244019 4.35783386230469 4.45650720596313 4.58496952056885 4.7291431427002 4.86368370056152 5.0091438293457 5.15361452102661 5.30245780944824 5.47255945205688 5.66269969940186 5.8773250579834 6.89646625518799 8.45232105255127 10.9042835235596 15.3579416275024 29.8671398162842 14.1022109985352 5.90296411514282 8.01027584075928 8.28290176391602 8.57644653320312 8.92546272277832 9.34111976623535 9.81165599822998 10.3218631744385 10.8697872161865 11.4754161834717 12.1383666992188 12.8800172805786 13.7549934387207 14.7788209915161 15.9426288604736 17.3302230834961 19.0325965881348 20.9058570861816 22.7033596038818 24.9840526580811 28.2887096405029 32.4871368408203 32.5235061645508 42.6478118896484 56.1449508666992 1.59355664253235 15.4068384170532 8.22358894348145 -4.32275581359863 9.68556022644043 -4.35849666595459 -4.1423511505127 -3.8834342956543 -2.58074545860291 -2.0005578994751 -1.07328701019287 0.939259946346283 3.05439162254333 8.41725635528564 21.6773223876953 4.25147676467896 6.4139142036438 8.26593685150146 15.0003423690796 26.4977989196777 0.7475705742836 1.0837254524231
1.9756783246994 1.9941782951355 2.00013399124146 2.09590077400208 2.11740493774414 2.12931418418884 2.00513982772827 2.0487756729126 2.15669655799866 2.29409027099609 2.44180703163147 2.58998465538025 2.76442623138428 2.96918606758118 3.38556361198425 4.2971396446228 5.56439304351807 13.5451183319092 3.18630385398865 3.32004308700562 16.6168727874756 3.54929089546204 5.00958776473999 5.31142807006836 5.64109516143799 6.07318592071533 6.54704189300537 7.05953121185303 7.69306373596191 8.50339698791504 9.32804679870605 10.39515209198 12.0694828033447 14.6303625106812 27.9772453308105 17.1606903076172 -0.0768011212348938 7.35473489761353 9.25548553466797 12.1431322097778 17.145486831665 26.5036563873291 46.1366539001465 2.056720495224 3.38224411010742 3.01191782951355 2.30047249794006 19.1857204437256 1.69961738586426 0.463180959224701 0.482645124197006 0.664158880710602 0.726988196372986 1.02870881557465 3.59238243103027 1.2065064907074 1.32601010799408 1.39410924911499 2.54005169868469 4.8915638923645 1.7065269947052 4.12848949432373 4.60572910308838 1.5133011341095 1.54893064498901 1.58909559249878 1.8411386013031 5.40758371353149 3.04920864105225 8.7060022354126 1.84132444858551 3.32578301429749 2.37770366668701 2.88862442970276 4.92112016677856 6.69515419006348 7.27168130874634 7.15078830718994 2.02267813682556 2.48284029960632 2.78232049942017 8.09857177734375 6.44645643234253 10.9110908508301 17.2625694274902 15.6677083969116 3.13222885131836 12.3804740905762 24.2561378479004 32.0388832092285 34.6355285644531 1.49011766910553 6.72915029525757 3.99813342094421 4.03190517425537 4.27728223800659 4.82522630691528 5.43843698501587 6.21787166595459 7.11589860916138 8.24874973297119 9.79609107971191 12.0222415924072 15.6945772171021 22.6298656463623 38.5328102111816 3.98610591888428 6.79441833496094 7.96189880371094 8.61133193969727 3.05333161354065 3.15857243537903 4.63138103485107 4.78195762634277 4.91297674179077 5.05564069747925 5.19759941101074 5.34557294845581 5.50805854797363 5.69132614135742 5.90059185028076 6.11263942718506 6.71446847915649 9.51612186431885 14.8715810775757 29.1839561462402 6.2844181060791 7.6903510093689 7.93542242050171 8.20552444458008 8.49740028381348 8.80747318267822 9.14550399780273 9.53284168243408 9.95222091674805 10.4098443984985 10.9024639129639 11.467719078064 12.1083850860596 12.8125257492065 13.6141786575317 14.5463008880615 15.6459131240845 16.8804359436035 18.1961669921875 19.4312324523926 20.7212104797363 22.8496646881104 35.0997200012207 24.5308799743652 33.7752151489258 42.6468353271484 21.6425151824951 21.9862442016602 -4.91988611221313 -4.97617053985596 -3.97467255592346 0.611704885959625 -3.36278319358826 -2.34488940238953 -1.70318853855133 -1.22400259971619 -0.268832862377167 0.183380112051964 0.668066143989563 8.83426380157471 14.1629619598389 0.710280299186707 0.774938225746155 3.27239799499512 5.16336393356323 0.907909214496613 0.929763197898865 0.952714443206787
4.73938798904419 4.96052026748657 5.15003442764282 5.33976173400879 5.68873023986816 6.01295328140259 6.33704805374146 6.76593399047852 7.51980113983154 8.61849308013916 10.0547981262207 11.7621402740479 14.1145839691162 17.5080757141113 23.1168270111084 33.1000556945801 53.1831092834473 -0.361445635557175 17.2152366638184 27.9368133544922 12.4733238220215 0.145858183503151 3.22979140281677 3.41164040565491 3.53674840927124 3.72381806373596 3.95355033874512 4.15712356567383 4.35529232025146 5.23449039459229 6.41314125061035 9.36648941040039 4.37359619140625 5.22690963745117 6.02702236175537 6.73297643661499 7.84486722946167 10.6418628692627 13.9067401885986 18.9233913421631 28.395975112915 49.1786308288574 -0.0161161497235298 0.366222470998764 7.60052013397217 9.36202335357666 0.673791646957397 1.63949918746948 11.8834104537964 2.12909603118896 4.22437953948975 0.777667462825775 0.841979742050171 1.02656435966492 1.09500861167908 2.25138998031616 5.06685590744019 7.44004726409912 9.50085258483887 16.7283821105957 1.15299129486084 1.70297694206238 7.27425670623779 1.84704625606537 1.91544127464294 1.96700298786163 3.25542283058167 7.3216404914856 2.20321655273438 2.39437675476074 2.47583818435669 2.4835216999054 3.05694150924683 2.58347153663635 3.3450620174408 5.25099229812622 5.48170900344849 6.06562757492065 3.34401082992554 3.61270928382874 3.78529214859009 5.37660026550293 5.73871803283691 6.44113731384277 9.50868701934814 20.575855255127 5.14561176300049 5.59560441970825 16.4395389556885 33.5569381713867 35.0695953369141 9.79068374633789 -0.0362175852060318 0.308854699134827 3.20493316650391 3.27210402488708 3.62872219085693 4.05380630493164 4.47752618789673 5.02425670623779 5.78140592575073 6.53291082382202 7.48559188842773 8.89724063873291 10.9277439117432 13.5985860824585 18.2794208526611 20.9894313812256 3.16764569282532 3.56432199478149 3.62953877449036 4.84651660919189 3.77752113342285 10.9383115768433 4.3350944519043 4.24010038375854 4.98323631286621 5.12432622909546 5.2760124206543 5.45326519012451 5.65485000610352 5.86665105819702 6.09692430496216 8.74477005004883 13.8037414550781 27.5599422454834 6.09757995605469 7.40293788909912 7.66884279251099 7.93636608123779 8.23957252502441 8.54499053955078 8.86917400360107 9.2052583694458 9.5752592086792 10.0036687850952 10.4938907623291 11.0408878326416 11.6392164230347 12.331750869751 13.1389179229736 14.2417345046997 15.4931898117065 17.3591480255127 30.2480888366699 16.8605480194092 21.9104747772217 25.8339176177979 36.3108673095703 27.5147171020508 35.9380073547363 43.7008323669434 13.0348720550537 23.052640914917 -4.98246049880981 -0.0732851549983025 -4.44525814056396 -0.00820169132202864 -2.36491727828979 15.3360404968262 -2.02216577529907 -1.76633453369141 -0.63068300485611 1.14284408092499 3.71951818466187 5.19667100906372 6.03563117980957 8.2441930770874 9.99388885498047 13.5228404998779 20.8201370239258 28.4858322143555 5.38249921798706 17.5343494415283
4.70863008499146 4.88317155838013 5.05828380584717 5.21877670288086 5.46724510192871 5.70158720016479 5.95628833770752 6.30873012542725 6.81973123550415 7.75859308242798 9.07904815673828 10.6274375915527 12.6126804351807 15.6158504486084 20.5549564361572 29.1562995910645 47.9337120056152 5.95495319366455 10.1267862319946 9.22309970855713 10.2141761779785 -0.728569686412811 0.1223329231143 3.40100908279419 3.64602899551392 3.90637016296387 4.21172380447388 4.47147178649902 4.72452735900879 4.98797273635864 5.21805191040039 5.40919160842896 5.59060382843018 6.0300726890564 6.7047758102417 7.1762056350708 7.99935579299927 10.2169971466064 12.7525882720947 16.2252178192139 21.824104309082 32.0495223999023 52.3952484130859 -0.220812156796455 0.252518653869629 5.0312066078186 16.7302551269531 0.557136952877045 12.3565521240234 0.708951592445374 3.59843063354492 4.85245704650879 0.758330523967743 11.9858703613281 0.80682373046875 0.919899523258209 1.03697407245636 1.124844789505 2.75864100456238 8.09144592285156 1.2481791973114 1.58965373039246 1.66186571121216 3.15395283699036 6.23316431045532 4.5865740776062 6.70036554336548 1.94736766815186 2.04481768608093 2.14577531814575 2.26969289779663 4.40130758285522 2.32924127578735 5.29941749572754 2.87732028961182 3.20176553726196 3.54744267463684 3.63106393814087 3.8761031627655 4.06552886962891 5.52994918823242 7.7268238067627 4.85386848449707 7.79878759384155 8.64633846282959 14.3996229171753 25.3833198547363 4.2549729347229 14.4597501754761 28.9562644958496 32.2223930358887 20.7879123687744 -0.267558813095093 -0.084951676428318 -0.018327958881855 2.46238327026367 2.48667001724243 2.76162528991699 3.21654772758484 3.80139517784119 4.44171524047852 5.24546051025391 6.23852491378784 7.66919994354248 10.0494785308838 13.2716608047485 23.5722484588623 2.78068399429321 2.955650806427 5.74433565139771 7.13378286361694 9.42715740203857 21.4874172210693 3.3235719203949 3.82852268218994 4.0667462348938 4.32075643539429 4.44280433654785 4.57086658477783 4.71807336807251 5.633957862854 7.00947141647339 9.15565490722656 12.7510643005371 19.5907859802246 36.9602699279785 4.72904348373413 6.39389801025391 6.63577461242676 6.87228202819824 7.11895132064819 7.36374711990356 7.63866424560547 7.92301416397095 8.23103713989258 8.5830774307251 8.98121929168701 9.43322658538818 9.94808197021484 10.5485954284668 11.220326423645 12.0311346054077 12.8906831741333 18.7274684906006 13.3712825775146 13.6479835510254 23.9078769683838 32.0486488342285 39.6391677856445 13.4241914749146 19.5057373046875 36.82080078125 15.9485607147217 20.4452476501465 7.31246185302734 -1.68149483203888 18.4896488189697 -2.71955060958862 -1.40315389633179 2.596027135849 13.736156463623 -0.773547291755676 0.135032832622528 3.8477737903595 9.3297815322876 8.01321029663086 25.2863426208496 10.3694906234741 15.46120262146 22.0170726776123 40.7472457885742 15.9633407592773 12.7253398895264 -0.418668299913406
