NCOLS 174
NROWS 32
XLLCORNER 353792
YLLCORNER 6700096
CELLSIZE 16 
NODATA_value -3.4e+38 
1.79836249351501 2.22244453430176 1.14407730102539 3.02624917030334 3.31550335884094 3.12820386886597 3.56100797653198 1.18555736541748 0.929804801940918 2.41788387298584 13.8045988082886 3.62460494041443 3.65602850914001 4.10517740249634 3.91285181045532 3.26257944107056 4.39507436752319 3.1492931842804 3.21726417541504 3.03850650787354 2.65972423553467 2.65778088569641 2.01827526092529 1.70611107349396 -0.338691681623459 1.10715854167938 0.617494225502014 0.647983491420746 0.964404284954071 -0.668163776397705 30.0360050201416 31.6842002868652 3.30833435058594 2.49581861495972 2.69032859802246 3.79119849205017 2.78470087051392 2.97421526908875 2.58980536460876 2.36517667770386 2.17535305023193 2.0271909236908 1.95224058628082 2.04220581054688 1.96450543403625 2.12299823760986 4.62593030929565 4.30464267730713 4.89882946014404 4.85073757171631 4.60386657714844 4.97820568084717 5.37483167648315 4.61962223052979 4.05446910858154 4.23659467697144 4.07716751098633 4.40240097045898 3.91967439651489 3.60737562179565 2.89597344398499 3.03729701042175 3.29809713363647 1.81467473506927 1.81860780715942 1.56307923793793 5.49226188659668 0.858906507492065 5.7022533416748 5.84163188934326 4.55115365982056 3.65764927864075 4.51749563217163 0.635802626609802 2.59849262237549 -0.014691149815917 1.2175030708313 9.22915840148926 14.1815185546875 2.57831358909607 22.4813213348389 22.9874897003174 1.5541707277298 1.32782399654388 1.18698310852051 2.69233012199402 3.7303409576416 2.86790990829468 1.37841105461121 2.13059401512146 29.1567115783691 12.1641807556152 7.68080997467041 2.05770921707153 1.61958849430084 1.47598659992218 1.41195046901703 1.03001821041107 1.12160205841064 0.793590366840363 0.343753308057785 0.261200934648514 0.173265025019646 2.71438193321228 5.50883102416992 3.6775119304657 1.65805017948151 4.60805892944336 6.00816440582275 4.6821985244751 4.24988126754761 3.86069464683533 17.1964073181152 9.67398929595947 12.9915208816528 13.8088350296021 8.74836540222168 4.2810173034668 3.82186770439148 -3.10791015625 -4.44344234466553 -4.71666812896729 -4.70860862731934 -1.81711721420288 -1.71145927906036 0.175757050514221 -3.6219425201416 8.50245475769043 1.90983378887177 8.96859455108643 16.1908283233643 -0.0208630245178938 -0.499989479780197 15.6634616851807 -2.03847599029541 -3.38443350791931 -3.68288111686707 9.86108684539795 9.54469776153564 0.475978434085846 4.68313121795654 -1.68325877189636 3.67316961288452 -0.481190830469131 0.868304848670959 1.71177184581757 1.93079030513763 12.5909671783447 6.70368385314941 11.8781661987305 18.2874011993408 0.376267790794373 -0.333622306585312 13.2363424301147 32.9537620544434 13.0883903503418 1.34110033512115 5.58648443222046 4.22219705581665 2.48592090606689 1.56446921825409 0.952019453048706 1.08066546916962 1.16297018527985 1.14695358276367 1.17190170288086 1.29398989677429 1.44265329837799 1.26035261154175 1.10496270656586 -0.157367587089539 1.61262691020966 3.81733703613281 4.7000412940979
2.59440183639526 1.92782688140869 3.44589996337891 3.67384743690491 3.59312009811401 3.84911036491394 1.46115159988403 0.837091147899628 2.44599580764771 3.6659369468689 21.2689552307129 3.86517119407654 4.35260534286499 3.765629529953 4.02063608169556 3.23952507972717 3.80241179466248 3.46916580200195 3.24509382247925 2.86258554458618 2.85145282745361 2.18146014213562 1.89685356616974 1.16518616676331 1.23349606990814 0.699678063392639 0.6867835521698 0.703564524650574 0.609510719776154 -0.989892780780792 8.77094841003418 31.7437171936035 3.09147429466248 2.78190183639526 2.73598694801331 3.1733238697052 3.47160124778748 2.81955599784851 2.8248872756958 2.51924538612366 2.29575514793396 2.1209545135498 2.12191915512085 2.03526496887207 2.03608584403992 2.18421530723572 4.79208326339722 5.22608375549316 4.54078531265259 5.06057024002075 4.81342744827271 5.20984077453613 5.59080171585083 4.77465867996216 4.49593830108643 4.35539150238037 4.42526006698608 4.57708120346069 4.1408634185791 3.85873413085938 2.89648103713989 3.2440972328186 3.49050998687744 2.84145832061768 2.04966878890991 0.528082728385925 0.311853408813477 1.49318826198578 5.33998346328735 4.6354546546936 5.07310962677002 4.85079526901245 4.79550457000732 4.12362575531006 0.914826929569244 1.8259094953537 1.7155202627182 1.77401614189148 1.36291396617889 0.956565141677856 1.24015283584595 2.52276515960693 1.59091341495514 1.49743950366974 3.4120671749115 3.13067841529846 2.21835064888 2.47438287734985 8.12194442749023 1.46388304233551 18.3467788696289 19.7708225250244 11.9471302032471 12.1829719543457 3.71848082542419 19.026538848877 1.9419903755188 1.6279923915863 2.06090617179871 1.30923104286194 12.2949628829956 12.5338134765625 9.7423677444458 3.92077922821045 3.59761261940002 4.37811756134033 8.47651958465576 6.13414716720581 6.6632513999939 5.46354341506958 5.06359338760376 27.3795509338379 12.9148902893066 21.385311126709 24.767635345459 19.7879600524902 15.0095767974854 3.82574081420898 0.647288620471954 -3.30429744720459 -3.98530459403992 -4.49902963638306 -4.61350345611572 -4.17740678787231 -4.41002559661865 0.246377497911453 -2.07765626907349 5.26308298110962 -0.059354729950428 -0.579106330871582 4.19764184951782 3.92682266235352 -1.09560811519623 1.72928631305695 -1.67947256565094 -3.04097652435303 -3.38109683990479 -2.92741799354553 -1.89961779117584 -2.60843849182129 -2.20791935920715 -1.67507910728455 2.28147077560425 -3.06625366210938 -2.85870575904846 -2.68762588500977 -2.40355849266052 3.38110661506653 5.08418273925781 6.69463634490967 13.8230447769165 -2.1638879776001 -1.60623693466187 -1.09685063362122 -0.794264197349548 40.2080726623535 4.61442041397095 6.27771282196045 4.70252180099487 1.72953200340271 0.99341893196106 1.06087219715118 1.26349973678589 1.28544950485229 1.32587265968323 1.4388599395752 1.59452962875366 1.55267131328583 1.26382541656494 1.16487228870392 0.522550940513611 0.123354963958263 2.06876993179321 3.62074041366577
2.81958174705505 1.50741863250732 4.07946109771729 4.37920475006104 3.12075281143188 4.11169862747192 1.26271605491638 1.17144656181335 3.13090014457703 2.56741571426392 4.04067611694336 4.59315252304077 3.88100790977478 4.28499269485474 3.47960710525513 3.21023344993591 3.56849193572998 3.49426937103271 3.36504030227661 3.04688024520874 2.35887217521667 2.07441759109497 0.975762367248535 1.31769680976868 1.23905849456787 0.323686987161636 0.772727787494659 0.0307043567299843 0.0161571577191353 -1.17869746685028 -0.826645493507385 2.89298605918884 3.30073833465576 3.54470086097717 2.97696590423584 3.30231142044067 5.01193046569824 3.02451348304749 2.93650102615356 2.70841574668884 2.43107056617737 2.27256917953491 2.17674517631531 2.10649466514587 2.27497792243958 5.08428955078125 4.72902536392212 5.37031078338623 5.46051979064941 5.22766017913818 5.65261507034302 6.03893423080444 5.09534215927124 4.80509996414185 4.70580768585205 4.75562477111816 4.89938402175903 4.48303508758545 4.24916839599609 3.50275039672852 3.72049784660339 3.85650134086609 3.07985401153564 2.20697712898254 1.46792113780975 3.03599524497986 3.41288447380066 6.43970632553101 5.36984062194824 4.54722690582275 3.68218803405762 5.11515522003174 3.75119495391846 4.3714747428894 2.32502031326294 2.87345838546753 2.65818667411804 1.90602803230286 1.04478287696838 5.95131826400757 1.42442524433136 1.61832249164581 2.25021576881409 4.69770431518555 4.21419811248779 3.97157526016235 2.52674627304077 1.39027082920074 3.4906542301178 2.78906583786011 18.6841621398926 29.9894428253174 10.1355714797974 11.0663366317749 1.86065781116486 6.29244422912598 2.38527703285217 4.13421630859375 1.44207191467285 1.07180833816528 0.777429163455963 1.67699313163757 3.1163067817688 4.56345510482788 7.07917785644531 3.29779863357544 10.6165199279785 7.03866767883301 7.16213893890381 10.8677988052368 5.61785984039307 38.2839736938477 13.6972217559814 26.4214458465576 22.258430480957 31.5425243377686 22.6983108520508 11.8221883773804 3.1697154045105 -2.69699907302856 -3.74909472465515 -3.76799607276917 -3.99090695381165 -4.27288579940796 -4.12917518615723 0.11478378623724 1.85228753089905 3.95663070678711 10.7551565170288 7.62918567657471 14.8301591873169 3.84375953674316 4.42226409912109 -0.149328365921974 -2.8144679069519 -2.59684610366821 -2.06337547302246 -2.56117415428162 -1.4001796245575 -2.06387662887573 -2.13919591903687 -2.6559681892395 -2.57410478591919 -2.51212811470032 -2.27064633369446 -2.12026572227478 -2.14979910850525 -2.09800052642822 1.97150158882141 -1.3098611831665 16.0404529571533 0.104078389704227 0.736782550811768 2.5302038192749 -1.20190227031708 3.02248120307922 9.81017303466797 5.336510181427 3.28983736038208 2.19310641288757 1.10300397872925 1.24784159660339 1.37191069126129 1.40393364429474 1.57020592689514 1.72769320011139 1.69027411937714 1.45662331581116 1.33948791027069 0.923584699630737 0.778293907642365 0.882681608200073 1.16029584407806 2.81037163734436
1.73288249969482 4.12215185165405 5.39921188354492 3.46258473396301 4.63681268692017 1.37833404541016 1.26151168346405 2.74165821075439 3.80259966850281 4.21787452697754 4.83636093139648 4.08245801925659 4.5315523147583 3.69337940216064 3.54474925994873 3.51753067970276 3.64912223815918 3.67853116989136 3.27917504310608 2.55789542198181 2.25401210784912 1.11865377426147 1.52464497089386 1.4510281085968 0.892372906208038 0.863360583782196 0.821537017822266 0.0222564525902271 -0.0176473017781973 0.478846579790115 0.887922286987305 1.79624283313751 3.08929753303528 4.01380491256714 4.02605056762695 2.40746879577637 3.35799837112427 3.24186205863953 2.95247626304626 3.09691596031189 2.56735229492188 2.42457151412964 2.31722021102905 2.36773300170898 5.38978862762451 5.02023363113403 5.68549251556396 5.91698312759399 5.6361927986145 6.10933876037598 6.60833311080933 5.50343942642212 5.00791883468628 5.08675193786621 5.14891862869263 5.26778507232666 4.81421184539795 4.55849981307983 3.94080591201782 4.12213277816772 4.34904766082764 3.32126188278198 3.33585691452026 1.63831567764282 4.29081201553345 4.81427526473999 9.77992248535156 7.38188648223877 4.97952127456665 3.77768659591675 5.2097601890564 3.55364966392517 4.8155255317688 4.3372917175293 3.63222002983093 3.81893539428711 3.20492029190063 1.35955286026001 1.02031433582306 1.80764830112457 5.8097882270813 2.05547332763672 7.92997360229492 4.86234188079834 5.0786337852478 3.73804616928101 2.43190336227417 1.56712806224823 5.80631542205811 1.59241843223572 1.42851758003235 28.1938743591309 1.97031509876251 21.1645126342773 6.45160627365112 10.1082239151001 1.90814530849457 10.827844619751 3.26433944702148 1.21914660930634 4.2895393371582 3.56554055213928 4.70811414718628 6.11078548431396 11.6088132858276 5.00681161880493 7.73387670516968 8.12362766265869 7.09784603118896 5.63880062103271 2.27517318725586 20.1752796173096 2.36939144134521 12.2145214080811 32.3306732177734 23.872802734375 30.7177295684814 13.5028305053711 2.0228545665741 6.58913898468018 -2.19110894203186 -2.654541015625 -4.07522058486938 -4.02165603637695 -3.95347285270691 -3.93224167823792 -1.69256293773651 -1.59002876281738 20.6576709747314 17.3463268280029 12.4144315719604 9.14676570892334 22.1826267242432 3.2587296962738 -2.52981090545654 -2.66457366943359 -2.48547387123108 -2.41993737220764 1.34558534622192 -1.5530469417572 -1.66510343551636 -1.52864956855774 -2.02461957931519 -1.87997424602509 -1.79341721534729 -1.57752668857574 -1.4592661857605 -1.50969076156616 -1.05937027931213 -0.437802910804749 31.2114944458008 10.5625038146973 1.89095461368561 2.87370157241821 2.9340283870697 6.64541721343994 14.5375957489014 3.69485974311829 2.48986315727234 1.13652622699738 1.29954278469086 1.42321979999542 1.45843255519867 1.54621708393097 1.8423764705658 1.80951309204102 1.60406708717346 1.49970901012421 1.10346555709839 1.12133431434631 0.937630772590637 0.972595632076263 1.17575204372406 1.68450045585632
4.59852027893066 4.83732080459595 6.130699634552 5.29491424560547 1.57888972759247 1.27587735652924 2.93762302398682 3.56551575660706 4.31792879104614 4.37428855895996 5.0627555847168 4.82737302780151 3.90027952194214 3.73027420043945 3.55149006843567 3.84444642066956 3.74275374412537 3.45746660232544 3.43068099021912 2.62487888336182 2.32952976226807 1.51691925525665 1.62632787227631 1.09025847911835 1.07865977287292 1.00304281711578 0.0876859426498413 0.00972398277372122 0.492048710584641 0.461730062961578 0.484056949615479 0.762260973453522 1.97239303588867 2.89217662811279 3.91279935836792 2.70688986778259 4.41209936141968 3.36794376373291 3.47895383834839 3.14612126350403 2.7454719543457 2.58090686798096 2.43772029876709 5.71596813201904 5.31928062438965 6.02303457260132 6.43979406356812 6.15704345703125 6.68567752838135 7.19342422485352 5.94637727737427 5.41958236694336 5.29780960083008 5.34907197952271 5.71300029754639 5.1895694732666 4.90425777435303 4.71537065505981 3.82320713996887 4.28974342346191 4.55090045928955 3.67344999313354 2.65914011001587 6.71557760238647 7.26653242111206 16.8235740661621 11.2711868286133 7.8884859085083 5.09239530563354 5.79118871688843 2.65217208862305 5.05297517776489 2.36346936225891 4.75412797927856 5.21048402786255 5.0604567527771 6.03054523468018 1.5376490354538 2.03334760665894 1.97249054908752 2.09067630767822 3.06320738792419 12.2978658676147 5.25406217575073 5.8560037612915 2.63885426521301 6.45077610015869 4.13052034378052 7.223952293396 1.65844142436981 1.53007471561432 8.29671859741211 6.09025287628174 9.21517086029053 12.3839426040649 16.211784362793 1.45330166816711 2.43138957023621 6.82879638671875 18.6510543823242 3.93001866340637 7.44646167755127 4.97690725326538 5.24522686004639 8.93621158599854 9.27046775817871 9.16576671600342 9.91938495635986 8.39323711395264 7.86582231521606 2.51506543159485 2.87059307098389 0.0403693020343781 1.13279318809509 6.78304052352905 23.8716945648193 31.0338134765625 24.1975841522217 9.80526447296143 -0.955035746097565 3.62564849853516 -2.6436140537262 -3.33814263343811 -3.38038277626038 -3.3839054107666 -3.1304657459259 -1.97733223438263 -0.329358279705048 17.7112808227539 40.0391807556152 11.705117225647 34.0661582946777 19.8384532928467 8.72979068756104 -1.28767967224121 -2.0927460193634 -2.32925081253052 -2.02566337585449 -1.43805146217346 -1.09153604507446 -0.5354323387146 -0.709234833717346 -1.04960513114929 -1.23817956447601 -0.916637539863586 -1.01942026615143 -0.783476650714874 -0.349928975105286 0.86952942609787 0.845305502414703 5.63017654418945 3.41044116020203 5.14079284667969 2.13770174980164 9.12165260314941 6.20407152175903 4.15942811965942 2.76123833656311 1.15913987159729 1.23000156879425 1.45349764823914 1.48758053779602 1.57451581954956 1.74559783935547 1.94516944885254 1.80862295627594 1.6732884645462 1.72516870498657 1.68281853199005 1.66741836071014 1.0992203950882 1.75322151184082 1.41957902908325 1.96278500556946
5.37028551101685 8.00231838226318 4.18316602706909 5.74142122268677 1.35254919528961 3.34093117713928 3.93850946426392 4.5872163772583 4.62482643127441 5.33891773223877 4.63034009933472 5.06642055511475 3.95489287376404 3.72421097755432 4.02336025238037 3.84647250175476 3.90355539321899 3.61499691009521 2.93212294578552 2.53254342079163 1.64396595954895 1.78496861457825 1.58616483211517 0.578224241733551 1.20909237861633 0.187163576483727 0.0793003439903259 0.571922183036804 0.491884738206863 -0.135626226663589 0.24216802418232 0.300718039274216 1.47133588790894 2.18751239776611 3.14111137390137 3.25421690940857 4.66309070587158 4.02339792251587 4.95393228530884 3.06486916542053 2.91930389404297 2.78676533699036 2.53915476799011 5.91446542739868 6.42063522338867 5.66933965682983 6.82260131835938 6.49504280090332 7.01991605758667 7.53840160369873 6.19393491744995 5.63027000427246 5.76061201095581 5.81799983978271 5.94361257553101 5.48749399185181 5.07498502731323 4.1881799697876 4.58567762374878 4.86272859573364 3.94100689888 2.88291144371033 11.9481153488159 12.590353012085 10.6377029418945 26.0514106750488 14.3269996643066 10.0912609100342 1.41589415073395 6.59415578842163 5.46185302734375 2.82683968544006 5.69513559341431 6.04540967941284 5.06619739532471 5.53530597686768 6.90213346481323 2.79087042808533 2.92216610908508 1.91894733905792 3.18665361404419 5.10402727127075 5.86657524108887 7.97031497955322 6.72211265563965 1.9770485162735 5.80541706085205 1.62721943855286 2.68233418464661 1.61662065982819 1.94157421588898 2.02606439590454 2.04996204376221 5.30729627609253 2.01839828491211 21.3047218322754 5.04694843292236 1.54095721244812 9.94997310638428 11.4297952651978 15.8035106658936 9.6348876953125 13.1913242340088 12.2873611450195 12.1531562805176 11.6670827865601 13.9929122924805 12.1785850524902 9.90408134460449 3.44439291954041 3.03295278549194 2.25111317634583 -0.323836028575897 -1.51878881454468 -2.06550073623657 -1.40824818611145 3.02594494819641 21.0822105407715 0.367081046104431 -0.787754058837891 -1.82426249980927 8.08460903167725 -3.17105531692505 -2.45065188407898 -0.0916572362184525 -1.24200892448425 -0.277908831834793 0.0944841951131821 0.539618909358978 15.5705881118774 29.7814807891846 47.5173377990723 30.5148277282715 12.6340045928955 -1.86693441867828 -2.00047874450684 3.58886933326721 -1.38770198822021 4.03186559677124 1.76679873466492 -0.25912943482399 -0.0635431110858917 -0.215904161334038 -0.569581091403961 -0.542740285396576 -0.216152921319008 0.246935442090034 0.450020045042038 2.6187207698822 2.05540132522583 2.67319178581238 3.14470458030701 13.297926902771 4.98742055892944 6.98591899871826 8.50586318969727 3.22829556465149 0.990014493465424 1.23952448368073 1.3967125415802 1.5148845911026 1.54529535770416 1.7575421333313 1.98361885547638 1.98892867565155 1.75616908073425 1.81204223632812 1.7919704914093 1.86513996124268 1.89632797241211 1.92741274833679 1.60074532032013 2.0421359539032 2.01191687583923
10.8108749389648 4.59069299697876 6.41165018081665 1.87863504886627 1.70215165615082 4.43868541717529 5.2047872543335 5.01047420501709 5.72574138641357 4.77381038665771 5.41158056259155 4.40801191329956 3.96831631660461 4.10537576675415 4.17127466201782 4.08896255493164 3.76055645942688 3.08509969711304 2.84711408615112 1.43710124492645 1.98011088371277 1.82629418373108 1.31877934932709 1.34285342693329 1.26977276802063 0.205865040421486 0.0624237321317196 0.605073034763336 0.517787575721741 -0.198908880352974 0.0200684145092964 0.307217925786972 1.0834949016571 1.77754127979279 2.82769727706909 3.36442875862122 3.51735305786133 2.65586304664612 5.09044647216797 3.62601256370544 2.83552265167236 2.85734128952026 6.35898923873901 6.37953758239746 6.65290355682373 7.45341777801514 7.0834379196167 7.67700338363647 8.26699447631836 6.81769943237305 6.20577764511108 6.27428340911865 6.29118299484253 6.39968156814575 5.89636087417603 5.53578948974609 4.52722692489624 5.01735782623291 5.22775459289551 3.96360206604004 4.00751972198486 2.0548734664917 18.4121494293213 8.51818752288818 0.367887437343597 28.3497543334961 22.4574279785156 16.6576232910156 8.89489078521729 7.3421688079834 6.23778676986694 6.87874317169189 4.44336986541748 6.73937940597534 6.91768455505371 8.87334728240967 3.69384360313416 3.32174110412598 2.82538819313049 4.41692638397217 7.20442342758179 6.63847208023071 5.64287948608398 13.7031860351562 2.17307090759277 1.75965225696564 2.27666044235229 1.82481634616852 1.94700121879578 2.32612872123718 6.97912502288818 2.60355687141418 2.47268152236938 2.52160429954529 2.10474705696106 8.21835136413574 4.20860528945923 3.48211407661438 32.0052833557129 20.9517211914062 16.4979286193848 21.6013221740723 23.3842697143555 27.1116485595703 17.7864894866943 20.1796798706055 17.4379844665527 14.8540143966675 10.537091255188 6.74119758605957 7.34983539581299 2.92683339118958 0.785718679428101 -1.37809586524963 -0.480775743722916 -0.895992755889893 16.8352527618408 22.4647827148438 12.2888107299805 -1.19213926792145 -2.34066867828369 -2.86895036697388 5.55844354629517 4.28253793716431 7.92140913009644 2.12571620941162 2.26450443267822 0.463794410228729 38.010383605957 19.1133060455322 -2.57714152336121 20.043758392334 42.3922500610352 19.6639175415039 0.344478756189346 -1.61381542682648 -1.28358483314514 -1.1001238822937 -0.383680313825607 -0.0493161641061306 0.182401716709137 0.69951993227005 0.435050278902054 0.170021235942841 0.750526905059814 0.857101500034332 1.59785854816437 1.67381513118744 10.2938289642334 2.93105149269104 3.32816505432129 2.90194082260132 8.18502330780029 13.4108057022095 10.7612791061401 5.97508192062378 4.18612861633301 1.83299946784973 1.47594511508942 1.56129801273346 1.57763135433197 1.6608430147171 2.0015230178833 2.01237106323242 1.86276352405548 2.06424379348755 1.86583173274994 1.95409643650055 2.00507593154907 2.04211139678955 1.85270595550537 1.81207668781281 2.24915766716003 2.50739622116089
5.58953237533569 7.48523569107056 2.00529813766479 1.81666016578674 3.94859004020691 5.21795415878296 5.73712348937988 6.37753105163574 5.15800905227661 5.69564199447632 4.55782222747803 4.45476198196411 4.41283130645752 4.43735933303833 4.33781480789185 3.91304016113281 3.88503861427307 3.13736796379089 2.94921803474426 2.28308320045471 2.00725746154785 1.46751964092255 1.51302862167358 1.46060025691986 0.2982357442379 0.195772796869278 0.75534975528717 0.626511335372925 -0.180502235889435 -0.240725696086884 -0.0748670622706413 0.295650631189346 0.686215400695801 1.28259515762329 2.0023877620697 3.2055344581604 3.61574721336365 2.55208134651184 3.42138290405273 3.72567224502563 3.36481022834778 6.6750020980835 6.29004144668579 7.15086460113525 8.17008495330811 7.76120471954346 8.46456241607666 9.16662693023682 7.58499145507812 6.81347608566284 6.71304416656494 6.84732007980347 6.92018842697144 6.38122987747192 5.96747970581055 5.14892387390137 5.37920570373535 5.68594169616699 4.29598999023438 4.2347583770752 3.03078508377075 0.459355056285858 0.607889771461487 10.2193384170532 2.70162868499756 4.94813299179077 2.4135639667511 13.1956472396851 7.16764497756958 12.3246631622314 9.58559799194336 4.53643798828125 7.82494974136353 9.06763172149658 12.0171909332275 4.80173683166504 3.96861433982849 3.53673243522644 4.21488046646118 6.1751537322998 7.57804775238037 7.23758459091187 4.12265586853027 18.2613639831543 2.38804388046265 1.74654018878937 5.21085691452026 2.32239890098572 8.55709743499756 2.32518315315247 3.89013576507568 5.70421838760376 8.04636287689209 4.16757249832153 1.51717638969421 2.47814679145813 13.9698352813721 0.844260215759277 17.4462909698486 23.8804893493652 23.2832908630371 25.3966789245605 18.39794921875 37.8164939880371 24.9773559570312 29.7850017547607 16.9638195037842 17.0908546447754 15.2697830200195 11.4043846130371 6.96148490905762 7.56157779693604 7.48996734619141 0.517278254032135 -0.146382108330727 -2.11198282241821 -2.54500341415405 3.51999163627625 0.257393836975098 6.12185525894165 -2.31974077224731 6.87766981124878 12.6384010314941 9.76459884643555 8.63319206237793 6.63740587234497 0.606753945350647 1.10950076580048 36.2247047424316 -1.92015981674194 -1.15803647041321 -1.99020445346832 30.588529586792 30.7173042297363 15.4435901641846 -0.694779336452484 -1.03576552867889 -0.228882297873497 0.060574047267437 0.352034717798233 0.823157668113708 1.135622382164 1.06322085857391 0.25987908244133 0.949699223041534 1.72655534744263 2.35423016548157 2.32454705238342 12.4556427001953 3.53534817695618 3.56370854377747 3.90581464767456 19.3976421356201 14.9680805206299 7.75176382064819 5.27892732620239 3.455570936203 2.2326979637146 1.89119374752045 1.71184861660004 1.76363790035248 1.90921032428741 2.11182522773743 1.99832952022552 2.12688231468201 2.18742609024048 2.41796350479126 2.56128478050232 2.17477297782898 2.25191068649292 1.96759486198425 2.43516516685486 2.62738084793091 2.64792609214783
8.92396926879883 2.81351327896118 1.62944650650024 4.28529405593872 5.15179061889648 6.21073579788208 6.04849863052368 6.70887279510498 6.17690706253052 4.92475175857544 4.6611704826355 4.41409921646118 4.69359254837036 4.65520477294922 4.20217704772949 4.105544090271 3.29104542732239 3.02913522720337 2.12280893325806 2.43436789512634 1.70010626316071 1.73828279972076 1.65095782279968 0.371272176504135 0.283352941274643 0.968483328819275 0.817868769168854 -0.106542803347111 -0.227344140410423 -0.296211868524551 -0.333020508289337 0.131521433591843 0.560600876808167 1.04110491275787 1.64710211753845 2.75525045394897 3.23861908912659 2.91862344741821 3.11509466171265 3.72060322761536 7.11144971847534 6.65784072875977 7.49558019638062 8.3590669631958 8.76385688781738 8.36561679840088 9.06947231292725 9.78622055053711 8.10411262512207 7.038743019104 7.31663751602173 7.55780982971191 6.96540498733521 6.45734453201294 6.06187915802002 5.29698610305786 5.7052583694458 5.79959726333618 4.58057308197021 3.31623816490173 2.16737580299377 1.84232819080353 1.37211489677429 3.32381749153137 5.57171058654785 3.76082587242126 20.4066390991211 7.14473438262939 6.12837171554565 4.14819717407227 14.7976570129395 9.19639778137207 11.4785737991333 17.3951587677002 6.29647302627563 5.67607307434082 4.8613920211792 6.22334146499634 8.17202663421631 8.39617729187012 7.72851467132568 6.58485317230225 2.94862771034241 3.65145397186279 2.79055166244507 1.74524760246277 2.34141302108765 2.11245155334473 14.5278911590576 2.44781160354614 2.68476891517639 3.02176260948181 13.4695434570312 2.62416887283325 1.65020072460175 1.75336170196533 3.28633236885071 5.84351634979248 12.1603698730469 17.636791229248 29.5396385192871 22.8682346343994 15.2033033370972 26.3635101318359 19.2625522613525 22.6145286560059 21.433874130249 19.5752391815186 20.5097179412842 10.7646808624268 8.73637390136719 13.9514980316162 12.2807750701904 10.1972684860229 6.06087112426758 -0.224764302372932 0.588753819465637 15.5245037078857 0.404399305582047 16.2735729217529 2.57717156410217 15.4827575683594 20.6466541290283 11.1608266830444 12.4392910003662 7.27257108688354 3.29344630241394 0.644977033138275 0.226062968373299 -2.81911587715149 -1.85130298137665 -0.321583956480026 7.25434875488281 29.9438781738281 25.9429721832275 12.9585494995117 0.784012675285339 1.03556454181671 0.687106370925903 1.14651894569397 1.61947751045227 1.35834085941315 1.66439628601074 1.36817932128906 24.2314739227295 4.08599376678467 3.52270936965942 3.14137244224548 3.76227307319641 3.76872539520264 4.11097431182861 21.0744361877441 23.6731071472168 11.0976505279541 7.85727119445801 4.32021570205688 3.68525052070618 2.72922372817993 2.25277662277222 1.98317766189575 2.09904503822327 2.276522397995 2.42889022827148 2.68787121772766 2.79587507247925 2.53664112091064 2.73099112510681 2.69947600364685 2.44301414489746 2.33167958259583 2.58002710342407 2.78972887992859 2.90243792533875 3.15506076812744
10.0264902114868 2.44660592079163 2.15442252159119 5.65290784835815 6.75092029571533 6.62699460983276 7.53084087371826 6.03856420516968 6.61234521865845 5.05110502243042 4.76548385620117 4.97358751296997 4.78802537918091 4.80259561538696 4.37341594696045 3.4973680973053 3.20284152030945 1.72020947933197 2.66017532348633 2.43809700012207 0.886707007884979 1.93092513084412 0.466078758239746 0.395563930273056 0.268526524305344 1.02555811405182 0.891239941120148 -0.12046567350626 -0.278746098279953 -0.332849949598312 -0.385596543550491 -0.412172853946686 0.217247307300568 1.02730786800385 1.76157307624817 2.0788893699646 2.65333032608032 3.43059372901917 3.69167876243591 2.74951195716858 7.28662109375 8.31996536254883 7.09862232208252 9.53933811187744 9.12868785858154 9.98157787322998 10.8349514007568 8.96074771881104 7.95126962661743 8.0112419128418 7.94292068481445 7.94901895523071 7.34970664978027 6.51330757141113 5.4208927154541 5.93333530426025 6.20552635192871 4.88136625289917 3.538090467453 2.3869833946228 1.93424129486084 1.91894841194153 3.92286109924316 4.45711851119995 21.7461071014404 1.9117819070816 23.373851776123 11.1168270111084 3.47057867050171 3.16092395782471 15.7947998046875 8.59933567047119 15.6046571731567 24.2364101409912 8.08721828460693 6.79831838607788 10.6965684890747 13.3318195343018 9.22541236877441 8.25654029846191 7.26347208023071 3.14508867263794 3.78885865211487 4.00101852416992 4.61906862258911 2.39979028701782 2.41747784614563 2.42131948471069 2.45325088500977 7.64420366287231 3.10136532783508 2.21162033081055 2.31708645820618 1.58373153209686 5.32901525497437 1.66400361061096 0.690785229206085 0.235368177294731 8.26159477233887 7.79077577590942 19.7056655883789 30.1789302825928 25.649097442627 25.9179801940918 26.1975746154785 30.1749534606934 21.1218662261963 12.3290271759033 16.3207168579102 10.4059171676636 6.70913553237915 20.1037750244141 14.6087875366211 9.80570602416992 6.75533962249756 0.544432461261749 -0.773147523403168 1.52735424041748 2.68726634979248 18.0263023376465 8.16204833984375 9.17734813690186 14.1458559036255 20.4530849456787 9.24313354492188 8.6363697052002 7.53215360641479 1.07223415374756 2.93103456497192 0.320231407880783 0.708291471004486 -1.61145508289337 -1.12320041656494 1.00742840766907 0.791982114315033 2.44955348968506 3.56578087806702 1.69707882404327 2.32904815673828 2.45380043983459 1.82603693008423 2.23463225364685 2.22484493255615 2.411288022995 11.4533863067627 3.76571083068848 3.92570948600769 3.85687494277954 3.97606062889099 4.32007455825806 15.4866981506348 41.9553070068359 37.2210998535156 12.9467868804932 4.48046684265137 4.04927158355713 3.83181071281433 3.20801639556885 2.81153297424316 2.34429478645325 2.52341222763062 2.61980247497559 2.87470889091492 2.94506645202637 3.06929302215576 3.37769746780396 2.93101072311401 3.19809317588806 2.93528342247009 2.77142548561096 2.86826348304749 3.07942295074463 3.17673492431641 16.6571521759033
2.73647665977478 2.45082926750183 5.20051431655884 6.53585004806519 7.26885795593262 8.34567260742188 6.83497858047485 7.54505634307861 6.00700664520264 5.42540264129639 5.39497566223145 5.25356864929199 5.21011972427368 4.61578369140625 3.82672309875488 3.44232082366943 1.78646898269653 2.82823371887207 2.6146068572998 2.11071109771729 2.15298795700073 2.04417610168457 0.499352186918259 0.38896170258522 1.20176303386688 1.0718959569931 -0.00977773685008287 -0.133971944451332 -0.273697853088379 -0.375746637582779 -0.411962747573853 -0.452505469322205 1.04567265510559 1.7857152223587 1.9718474149704 2.07905125617981 2.20375561714172 2.66727733612061 3.21300649642944 7.6881799697876 9.29114246368408 8.3033447265625 11.2991199493408 10.3755235671997 11.2851085662842 12.2635288238525 10.0860233306885 8.71110916137695 8.26890754699707 8.49419403076172 8.47704410552979 7.87583923339844 7.26366376876831 5.94333171844482 6.31631708145142 6.65232467651367 4.97664499282837 5.04036998748779 2.51695251464844 2.02810955047607 2.3898651599884 2.18514704704285 5.49994134902954 2.77630162239075 3.57832741737366 1.1072016954422 2.06457901000977 27.3330974578857 10.1518840789795 6.46434640884399 24.3150749206543 2.49213671684265 1.73249316215515 6.37036323547363 6.90161657333374 6.35908889770508 15.0784111022949 18.5397071838379 9.61964893341064 8.55560779571533 7.1611123085022 4.15361166000366 4.81816482543945 5.15135383605957 4.27618408203125 3.15674710273743 2.61342453956604 2.49928641319275 2.8369619846344 2.49497389793396 2.39774012565613 3.76953840255737 1.99583435058594 1.80892050266266 1.80071258544922 1.31677854061127 0.476099044084549 -0.0222656093537807 0.236480697989464 3.33316802978516 10.3248071670532 24.0615520477295 21.6863307952881 33.9686126708984 25.8586845397949 29.5415172576904 26.5364646911621 16.8722133636475 15.0946950912476 7.97957849502563 3.91854429244995 3.71649098396301 29.2126808166504 9.44197273254395 9.15788459777832 2.9074375629425 2.84950637817383 0.461911052465439 3.26100087165833 16.826639175415 21.9580631256104 14.6700267791748 12.9566106796265 31.6164627075195 15.7764263153076 9.09284687042236 7.10216093063354 4.54967832565308 4.35461902618408 4.19132089614868 1.70622181892395 1.29109168052673 4.54747295379639 17.9993934631348 2.82968688011169 2.12085247039795 4.22223472595215 3.63374185562134 3.36609530448914 2.85134840011597 2.90107131004333 2.77684497833252 3.1035304069519 3.20746779441833 23.8552436828613 6.79576921463013 4.19461250305176 4.31138610839844 4.64393663406372 7.6399564743042 2.29048418998718 2.43942379951477 28.7139282226562 22.1549072265625 4.19620895385742 4.30823469161987 3.85906314849854 3.58625173568726 2.6410083770752 2.79039573669434 2.80337882041931 3.06635689735413 3.14374828338623 3.23856902122498 3.53566098213196 3.85614228248596 3.565593957901 3.60054516792297 3.52125787734985 3.5606963634491 3.19915270805359 3.25774002075195 24.8050632476807 35.528923034668
2.84655737876892 6.04387378692627 6.66211032867432 8.07423114776611 7.83588838577271 9.07893371582031 8.50785636901855 6.78872156143188 6.29502439498901 6.05450582504272 5.71078968048096 5.61019039154053 5.12890243530273 4.90944910049438 3.9847297668457 3.63778162002563 3.12391948699951 2.73202252388 2.24648213386536 2.48297691345215 2.30804133415222 0.591907978057861 0.492378950119019 1.42064726352692 1.26804673671722 0.0904771313071251 -0.0405906997621059 -0.169037476181984 -0.279037654399872 -0.377006322145462 -0.441154509782791 1.10186743736267 1.63160574436188 2.02088522911072 2.01160860061646 2.20587491989136 2.12283706665039 2.4532458782196 8.19178199768066 7.6867790222168 9.99728488922119 13.9062690734863 12.0088920593262 13.2196674346924 14.2622127532959 11.7175445556641 9.93424320220947 9.1178503036499 9.17546463012695 9.16890621185303 8.45487689971924 7.70735168457031 6.49062585830688 6.73213338851929 7.17624044418335 5.28010654449463 5.33398008346558 3.79928421974182 2.86364579200745 2.31730675697327 2.35644912719727 5.58558750152588 5.70895910263062 4.17732334136963 2.21110367774963 2.61764740943909 1.46800696849823 2.17960596084595 14.7333726882935 2.57475614547729 16.5009422302246 2.12704157829285 2.65917658805847 3.53859043121338 7.16804647445679 2.82433676719666 4.42403650283813 12.9640779495239 9.36139583587646 7.67127704620361 6.09624004364014 5.62995052337646 3.27658677101135 5.50832796096802 5.2171835899353 3.27485871315002 2.52215814590454 3.44890165328979 12.2029705047607 2.85120296478271 2.35865545272827 3.93450021743774 2.88223338127136 1.93885898590088 2.38931488990784 1.29018068313599 0.618077337741852 -0.125450015068054 -0.188115581870079 -0.25664547085762 3.46654486656189 11.2393894195557 8.4209156036377 19.5286312103271 36.3716621398926 29.6221408843994 36.7049407958984 21.5832576751709 16.9119091033936 9.63330459594727 6.72702693939209 1.8565331697464 8.02166843414307 4.03720378875732 12.8716087341309 5.27965211868286 1.99821174144745 -1.42180907726288 10.4302701950073 13.0259675979614 35.211742401123 18.929708480835 7.19911289215088 24.2977180480957 26.8506488800049 9.07957744598389 7.61202192306519 7.49694347381592 5.43017625808716 6.03212356567383 4.28300189971924 -0.331517666578293 1.27111601829529 3.45634818077087 2.03604364395142 4.49781179428101 4.06194543838501 3.53759121894836 4.05343008041382 3.91740369796753 3.95049238204956 4.01303863525391 4.00155639648438 3.26023554801941 3.9697437286377 10.3839569091797 4.69502687454224 4.6583080291748 4.87800979614258 3.5868821144104 29.5919361114502 3.41189956665039 3.98927974700928 4.57818937301636 4.65819978713989 4.67171907424927 4.1317081451416 3.76322412490845 2.85470223426819 3.03135943412781 3.2045521736145 3.29750466346741 3.39643216133118 3.70538115501404 4.02545404434204 4.01475667953491 3.81296920776367 4.00355529785156 3.93846368789673 3.72506761550903 3.58309578895569 3.34878826141357 33.9815902709961 46.3825187683105
7.15045261383057 7.78687047958374 9.11793804168701 8.50569915771484 9.9759693145752 8.1537971496582 9.17042827606201 6.85262012481689 6.30241394042969 6.44789028167725 6.25769710540771 5.59648132324219 5.32919788360596 4.31243324279785 3.94682717323303 2.64380788803101 3.32852292060852 2.43750381469727 2.74003314971924 2.53175497055054 0.676873803138733 0.653773903846741 1.658411860466 1.50226140022278 0.213316410779953 0.0647945925593376 -0.0866963416337967 -0.172571331262589 -0.292527794837952 -0.377237111330032 0.571364760398865 1.14303982257843 2.10907459259033 1.96597802639008 2.24990105628967 2.13833427429199 2.15911722183228 2.44882583618164 8.56575679779053 11.8119602203369 19.7321681976318 13.5259313583374 13.3918733596802 15.2838773727417 15.7886266708374 12.8437404632568 10.4567785263062 10.2669439315796 9.80968379974365 9.57304096221924 8.77047729492188 7.3975076675415 6.18479013442993 6.85458278656006 7.33511686325073 5.61811256408691 3.93046259880066 2.96924233436584 3.0354905128479 2.59149837493896 6.0147590637207 6.08051919937134 5.4849705696106 2.26919674873352 2.70126032829285 2.48772120475769 2.59329795837402 6.83135843276978 10.1064367294312 2.92985534667969 3.75569105148315 12.5240898132324 3.16404581069946 2.75942182540894 3.162517786026 8.34101104736328 10.854323387146 15.3375730514526 9.08487224578857 6.52713823318481 6.15600156784058 6.80004405975342 7.14814424514771 3.8026237487793 8.49731922149658 4.03760719299316 2.62786459922791 3.1000394821167 3.12610173225403 2.8509464263916 2.42756724357605 2.164142370224 8.98313045501709 8.53273677825928 1.39905226230621 1.98927867412567 1.14619386196136 0.610321700572968 -0.0744807049632072 -0.305912911891937 0.193964347243309 15.0078563690186 20.7345504760742 7.14756441116333 4.99139833450317 16.8596496582031 20.7407245635986 18.7384243011475 14.3190813064575 14.4351224899292 7.19019985198975 -0.179764628410339 0.118431247770786 1.11260843276978 5.42628765106201 3.24262928962708 1.46194577217102 -1.21714401245117 -1.41515719890594 6.16794729232788 17.1003494262695 9.377610206604 8.93197536468506 7.59232044219971 13.000940322876 10.6814060211182 10.5923976898193 7.34145784378052 8.15399074554443 5.64783477783203 4.99658203125 6.97215700149536 4.73040103912354 3.85009145736694 5.09318113327026 4.32585430145264 3.58759498596191 4.21192932128906 4.43021154403687 4.14236068725586 4.16333436965942 4.79349708557129 4.83052015304565 4.48996305465698 4.37556982040405 4.85357427597046 4.99350166320801 6.26192331314087 4.28300714492798 3.1273992061615 4.10057640075684 10.2380056381226 4.74927854537964 4.71651887893677 4.89463233947754 5.00254392623901 4.77377367019653 4.4508810043335 3.1218786239624 3.34174919128418 3.32062983512878 3.53358244895935 3.85949039459229 4.20497131347656 4.49537134170532 4.22960805892944 4.13484716415405 4.09959697723389 4.09697198867798 3.8735146522522 3.50376152992249 2.07975745201111 2.01607394218445 2.42515468597412
9.28842449188232 10.9637126922607 9.85905742645264 11.051570892334 8.78796672821045 10.1699848175049 7.97661542892456 7.32250499725342 7.10144567489624 6.75869798660278 6.63533449172974 5.96585512161255 4.63047790527344 4.31137752532959 2.29154849052429 3.75810360908508 3.32967162132263 1.20732617378235 2.93183588981628 0.770204961299896 0.724875688552856 0.545751929283142 1.73331665992737 1.57327461242676 0.140040427446365 0.0295629948377609 -0.0833412855863571 -0.211080625653267 -0.283275604248047 -0.375995814800262 1.28194320201874 2.0590033531189 2.16816234588623 2.2632782459259 2.30369830131531 2.19353532791138 2.4719181060791 9.3965539932251 15.2496404647827 11.1533784866333 29.0834693908691 19.8934936523438 19.2360038757324 19.3341789245605 15.6670341491699 12.3464345932007 11.9406881332397 11.182825088501 10.6946678161621 9.74578857421875 8.62855815887451 6.86235237121582 7.23357629776001 7.78106641769409 5.86683988571167 4.06517791748047 2.7473509311676 2.72918748855591 2.92464804649353 6.45448350906372 6.5059986114502 5.7467246055603 2.31525063514709 2.60974287986755 2.74658894538879 2.56245088577271 19.995922088623 3.03194427490234 7.77476978302002 14.273663520813 2.15294575691223 3.44836974143982 4.83045387268066 3.19448018074036 7.49424362182617 13.4014797210693 10.2186679840088 13.1047220230103 9.22283554077148 6.9948844909668 7.35109329223633 9.61666107177734 7.55428647994995 4.57771825790405 4.08883857727051 4.07855844497681 3.98158669471741 3.40979552268982 3.25764346122742 3.00112986564636 2.36524391174316 2.22793889045715 2.30819201469421 12.6135139465332 1.72441959381104 5.83899641036987 1.22546565532684 0.77172327041626 -0.113576009869576 0.0327130667865276 -0.131500706076622 -0.187884211540222 7.11335372924805 4.89581775665283 12.0562934875488 27.1066417694092 22.108570098877 16.38525390625 17.8527889251709 12.2687873840332 7.68138456344604 3.93327045440674 1.36170542240143 5.12777328491211 6.33916854858398 5.32983922958374 3.77018213272095 -1.27130281925201 -1.73783004283905 -0.538191318511963 15.8674688339233 35.4083557128906 24.7089462280273 17.5324592590332 22.4699192047119 15.5075559616089 10.136399269104 9.3075008392334 10.2799243927002 6.91352415084839 9.02267074584961 6.50225973129272 5.34851264953613 3.47545266151428 6.22566938400269 5.22609186172485 4.31955909729004 4.19397687911987 4.93218231201172 4.38675546646118 4.53668832778931 5.00526475906372 5.20107269287109 5.34660816192627 5.33140563964844 5.42227792739868 5.25717496871948 5.5559663772583 4.95269584655762 4.56949663162231 4.62694931030273 5.00576114654541 4.77197742462158 4.9325065612793 5.06913471221924 5.17052459716797 4.76830816268921 4.326340675354 3.45954537391663 3.57196283340454 3.55733633041382 3.8781430721283 4.36682319641113 4.69024085998535 4.40653419494629 4.25010919570923 4.20835590362549 4.22291564941406 4.00207614898682 3.75966191291809 4.81639766693115 3.12165379524231 2.44473314285278 2.24194240570068
10.8618841171265 12.3766050338745 13.254994392395 9.91636943817139 11.1888113021851 8.72490119934082 8.15638828277588 7.77479791641235 7.46286773681641 7.47026491165161 6.73656749725342 5.20367193222046 4.64625310897827 2.45565867424011 4.17958784103394 3.65788507461548 2.95475959777832 3.22616028785706 3.00317192077637 0.936093986034393 0.664927303791046 1.93832910060883 1.76953411102295 0.214401304721832 0.0974643751978874 -0.0276316571980715 -0.114074155688286 -0.214243948459625 -0.311759352684021 1.48154890537262 2.01106643676758 2.35200524330139 2.44739603996277 2.43708276748657 2.25871753692627 2.59393930435181 10.6920042037964 22.5539360046387 16.4491863250732 10.3224744796753 24.6099262237549 29.4747409820557 24.9996967315674 20.4730110168457 15.1779747009277 13.7333927154541 12.8958072662354 12.0471019744873 11.0348892211914 9.61761665344238 7.66641139984131 7.83032512664795 8.643967628479 5.87237215042114 5.93633413314819 2.61879825592041 2.1911780834198 2.60028600692749 2.62248921394348 6.97278022766113 6.1552882194519 4.26788282394409 2.24748373031616 2.82848644256592 2.61137819290161 9.78974151611328 29.7318248748779 3.14680671691895 3.80824398994446 13.7125511169434 6.83592557907104 3.23610806465149 5.74430370330811 6.21507883071899 10.9725923538208 16.6375751495361 15.3490877151489 19.885555267334 8.49041843414307 8.86497592926025 8.1949405670166 11.2198543548584 15.4611282348633 18.472677230835 4.27786540985107 4.44228029251099 4.26082801818848 3.34618496894836 3.29572606086731 2.86458158493042 3.09957432746887 2.01079154014587 1.70343434810638 18.1625499725342 4.53586053848267 3.66371464729309 2.03751730918884 0.773112297058105 0.587689578533173 0.270572781562805 -0.0654644817113876 -0.261807292699814 14.2102537155151 9.19742965698242 8.27461528778076 27.8483619689941 18.4690113067627 21.715799331665 14.9302921295166 9.65677165985107 6.13498973846436 3.61535358428955 3.34105229377747 9.05789852142334 8.26088333129883 12.1570301055908 -0.876490831375122 3.06529402732849 -1.66323029994965 1.3781270980835 17.0318489074707 11.0292797088623 33.9937438964844 12.9335384368896 23.1317329406738 13.7756328582764 12.4320831298828 14.1105556488037 9.51267051696777 11.5686845779419 8.71223735809326 7.20046615600586 4.88545036315918 7.96630525588989 6.73119878768921 4.97823286056519 5.16815900802612 5.25602436065674 4.53315830230713 4.77466011047363 5.28045082092285 5.50487327575684 5.59323167800903 5.69741344451904 5.7926025390625 5.73757410049438 5.96359157562256 5.5809121131897 5.46539545059204 5.23216104507446 5.21947431564331 5.12921333312988 5.08504486083984 5.11521577835083 5.45522165298462 4.90628147125244 4.81293296813965 4.55861330032349 3.67855501174927 3.75392889976501 3.74954891204834 4.22325897216797 4.86018133163452 4.62026357650757 4.49770593643188 4.34791278839111 4.30536603927612 4.10860776901245 3.88158512115479 5.20603656768799 4.54818534851074 3.50443196296692 2.71581983566284 2.67747020721436
15.5694255828857 13.2278604507446 14.9765119552612 13.1782703399658 9.6488561630249 8.96906852722168 8.17809391021729 8.34617042541504 8.24677562713623 7.51725006103516 6.79091501235962 5.4362621307373 5.06416511535645 3.41188192367554 4.60382223129272 3.22962498664856 3.61418271064758 3.30381417274475 0.965373933315277 0.986600697040558 2.2280101776123 2.1008243560791 0.342444151639938 0.146375268697739 0.0317322611808777 -0.0639738515019417 -0.176732853055 -0.250767022371292 0.885255873203278 1.53682839870453 2.591477394104 2.34198307991028 2.64210605621338 2.37658858299255 2.75699138641357 12.6604690551758 11.555214881897 32.9245643615723 30.6462860107422 20.0164585113525 17.5372619628906 39.5848426818848 29.6058197021484 19.7679424285889 18.1108989715576 15.6403455734253 13.7005987167358 12.506537437439 10.778636932373 9.01394367218018 9.0557861328125 10.0188484191895 8.75075054168701 6.36442899703979 4.24404525756836 1.96509087085724 2.27706694602966 2.50654625892639 7.03742694854736 7.16571092605591 5.19533967971802 2.34815716743469 2.8283805847168 2.63601088523865 2.81484985351562 1.52794241905212 26.1303195953369 4.02149724960327 3.41600513458252 10.1569852828979 9.42567253112793 5.31524467468262 3.34211301803589 16.4641208648682 17.6909732818604 11.5731258392334 9.07112121582031 20.0055503845215 10.5533638000488 8.32545566558838 14.6042451858521 14.4865865707397 3.24650597572327 4.65393304824829 4.69911432266235 5.2934718132019 13.5753908157349 4.4407262802124 3.79316067695618 3.95666670799255 2.9119336605072 2.61174297332764 1.61672425270081 7.89581775665283 2.1269268989563 2.29459023475647 2.06422281265259 1.24939250946045 1.04349684715271 0.0888426303863525 -0.185987636446953 -0.429136693477631 2.87999534606934 0.13895907998085 7.5993766784668 40.1508102416992 25.8974094390869 29.9274501800537 13.1324682235718 5.82377290725708 6.02219152450562 3.88285732269287 11.6734819412231 14.6494169235229 8.86577033996582 18.0722198486328 -1.11391723155975 -1.63263428211212 0.0650106444954872 -0.792996942996979 4.00102519989014 11.5529375076294 8.19495296478271 33.3066062927246 34.212646484375 20.1056747436523 17.5126209259033 11.2453708648682 11.2800693511963 13.6413717269897 10.8226661682129 6.9197473526001 10.1306047439575 8.73586750030518 5.89963483810425 6.62441873550415 6.16869592666626 5.16122770309448 4.95301628112793 5.52491617202759 5.78795289993286 5.89287090301514 6.08323287963867 6.224769115448 6.10614204406738 6.29558944702148 6.19958400726318 5.85521411895752 6.07979583740234 5.90618848800659 5.8522047996521 5.55131864547729 5.43966865539551 5.6143627166748 4.96269559860229 4.84049797058105 4.61494159698486 4.685715675354 4.06529188156128 3.88664865493774 4.24845409393311 5.03122043609619 4.79005241394043 4.63081169128418 4.65619087219238 4.57727527618408 4.34184169769287 4.29673480987549 4.34684419631958 5.44472169876099 5.96877670288086 5.70653629302979 5.55521440505981 4.93304824829102
16.5917091369629 19.0304470062256 13.5900192260742 14.9958515167236 10.3827810287476 9.03904151916504 9.16519069671631 8.90137100219727 8.83021354675293 8.07355785369873 6.04548215866089 5.56094312667847 3.84068512916565 5.42734861373901 4.3212251663208 1.43622553348541 3.79887437820435 1.04878509044647 1.12047958374023 2.46159720420837 2.36067652702332 0.468425303697586 0.298972547054291 0.103122159838676 -0.0147080244496465 -0.13822640478611 -0.21644726395607 -0.307600557804108 1.66648721694946 2.61510396003723 2.67424321174622 2.92893862724304 2.61544179916382 2.48864603042603 2.85215091705322 14.1656646728516 7.59420204162598 8.01475429534912 10.834451675415 11.402738571167 11.3092422485352 47.5492324829102 40.8288459777832 26.6380004882812 20.6414775848389 16.8300971984863 14.8057851791382 13.4618701934814 9.92870044708252 8.40703010559082 9.7789363861084 10.9057178497314 6.94670534133911 4.55877876281738 2.68065190315247 2.4038393497467 2.68778586387634 7.69144439697266 7.64402008056641 6.72165155410767 2.41465091705322 2.42708325386047 2.89219880104065 2.7146692276001 2.30406904220581 3.19864892959595 11.0830726623535 9.08402442932129 15.7692956924438 4.05071544647217 13.3684663772583 17.1543884277344 27.20237159729 28.7379989624023 21.3708343505859 13.2074069976807 7.36688232421875 11.3920831680298 12.0958232879639 19.9586925506592 21.6771659851074 4.20834684371948 4.37555551528931 4.93685722351074 8.40965366363525 4.38233470916748 4.61863708496094 4.77822828292847 4.35448169708252 3.81294584274292 3.63494396209717 2.5041561126709 1.84036195278168 2.18679976463318 7.49411487579346 2.71715188026428 2.42630362510681 2.26744627952576 1.01382577419281 0.481005817651749 0.109277166426182 -0.328987330198288 0.502477884292603 8.12566661834717 0.846433281898499 23.3210926055908 21.1043376922607 29.623140335083 16.8010082244873 10.2104167938232 7.59446716308594 21.4659996032715 17.3803520202637 23.251916885376 0.00470889965072274 14.2102727890015 0.893131613731384 -0.990273475646973 -1.17426073551178 12.1741743087769 15.7748203277588 9.06828594207764 7.60606908798218 3.21621489524841 13.3658514022827 24.6958026885986 13.6058959960938 13.4030885696411 15.717264175415 12.6775617599487 10.6297950744629 12.4096488952637 11.0299034118652 7.51532363891602 8.46193695068359 6.12916135787964 7.23320770263672 5.30296850204468 5.78362894058228 5.84318256378174 6.17799186706543 6.37361335754395 6.26665735244751 6.53183269500732 6.72475576400757 6.56210088729858 6.20304107666016 6.40688753128052 6.25632572174072 6.28746795654297 5.8870701789856 5.87585401535034 6.0293288230896 5.29764938354492 4.97461652755737 4.87123489379883 4.70114612579346 4.15009021759033 4.15441179275513 4.26198816299438 4.81436014175415 5.14725303649902 4.90061664581299 4.84037303924561 5.50834178924561 4.80197429656982 4.83510112762451 5.08339548110962 6.00419139862061 7.64527988433838 10.4368228912354 5.66831064224243 25.131893157959 6.32318735122681
25.4130344390869 17.2142772674561 19.1702194213867 13.2466869354248 12.0296468734741 10.3376245498657 9.95302295684814 9.75033473968506 9.01687240600586 7.01739645004272 6.14209699630737 3.21213364601135 6.58034038543701 5.29943418502808 3.91999530792236 4.48993062973022 4.09053897857666 1.33393979072571 0.758371472358704 2.58909463882446 2.48070693016052 0.373749881982803 0.25077897310257 0.097411721944809 -0.0669129639863968 -0.158506795763969 -0.275924116373062 1.82814025878906 2.82713651657104 2.86039400100708 3.18328213691711 3.04664325714111 2.68325328826904 3.16945099830627 17.9751873016357 16.3048362731934 9.38845729827881 2.52439069747925 1.54439043998718 0.90505838394165 -0.0888654291629791 6.24656200408936 39.5251045227051 37.0864486694336 25.2118034362793 18.3417739868164 16.5455722808838 13.1787996292114 10.2775039672852 11.7371578216553 13.3396673202515 7.30834245681763 7.21454620361328 2.85241866111755 2.07609057426453 2.91787624359131 2.98814678192139 8.53223037719727 7.30816030502319 2.54042553901672 2.53407692909241 2.98767781257629 2.78478527069092 2.94002532958984 5.32732534408569 4.80930280685425 4.74022722244263 14.4940004348755 25.2171745300293 3.96838521957397 10.2471218109131 29.3203563690186 42.1751327514648 28.5439796447754 22.7102642059326 16.7085437774658 15.1665802001953 17.0225296020508 29.7813148498535 31.2003536224365 11.5139350891113 5.22525835037231 5.01216554641724 9.46461486816406 12.7784357070923 4.86238384246826 4.93248224258423 4.31630563735962 4.48242044448853 5.16742992401123 4.74822950363159 3.13264465332031 2.61199736595154 2.79933142662048 2.84872245788574 6.09838581085205 2.94568562507629 2.78601789474487 1.74537003040314 0.680772006511688 0.280064314603806 -0.14056496322155 -0.00656585581600666 -0.109034962952137 2.45036768913269 3.20278239250183 12.3794364929199 23.4329242706299 12.0157709121704 7.01511907577515 9.43364429473877 19.684061050415 3.39172744750977 11.0864152908325 19.3459987640381 4.04655790328979 -0.433396875858307 -0.813066065311432 -0.992884278297424 20.491325378418 21.3900680541992 6.72665596008301 10.2716112136841 7.93951034545898 32.5336799621582 35.9195861816406 19.1219673156738 20.1954402923584 15.7390956878662 12.1604881286621 8.84358024597168 14.1462383270264 12.7354555130005 10.3536233901978 7.31851196289062 8.63918304443359 6.08933687210083 6.03998899459839 6.00620555877686 6.287926197052 6.46928739547729 6.58326101303101 6.86446857452393 7.16323232650757 7.0219578742981 6.64903116226196 6.30783414840698 6.61933612823486 6.67865180969238 6.23695135116577 6.19637441635132 6.42020606994629 6.03809118270874 5.39777565002441 5.089430809021 5.08955812454224 4.56825685501099 4.60003042221069 4.11875200271606 4.64850568771362 5.33567714691162 5.08445072174072 5.02718114852905 5.07007932662964 6.01166963577271 5.2162914276123 5.57625722885132 6.76688432693481 14.047739982605 18.0982398986816 16.5725345611572 5.77497005462646 15.9658050537109 14.6552219390869
22.6794013977051 25.4385852813721 17.5470962524414 14.9966812133789 12.219614982605 11.6211624145508 10.9976015090942 10.0344867706299 8.61315059661865 7.09655809402466 6.6165246963501 7.6478910446167 6.52765989303589 4.73552417755127 5.32614660263062 4.79533958435059 1.47649109363556 1.46728730201721 2.91593909263611 2.78664803504944 0.420611053705215 0.316852807998657 0.185555756092072 0.0623771995306015 -0.0634846463799477 -0.203577727079391 2.06294822692871 2.71343469619751 3.07984113693237 3.48950624465942 3.29607772827148 2.89601469039917 3.46741223335266 24.4177627563477 22.0520973205566 22.3116455078125 12.3231410980225 4.0845775604248 6.20643281936646 -0.119765251874924 5.31942749023438 1.35127770900726 9.11548614501953 41.267822265625 35.3872718811035 21.9753665924072 16.4596424102783 12.5992565155029 15.0342502593994 17.1412830352783 8.07170009613037 7.88110685348511 5.00164651870728 2.49590229988098 2.64582014083862 3.01726961135864 9.30217838287354 9.11630725860596 6.47858905792236 2.71140027046204 3.06942105293274 2.87387180328369 3.03657245635986 2.84193587303162 5.54294586181641 5.82020378112793 3.31668376922607 2.91334891319275 15.0182094573975 2.60199594497681 4.76846885681152 13.7673645019531 54.2528457641602 33.4019966125488 21.1753387451172 20.8633251190186 23.1402282714844 28.3629207611084 18.8646850585938 4.95998954772949 5.19636106491089 5.65681982040405 7.09808969497681 6.35730409622192 5.11857080459595 5.08435678482056 4.46190118789673 4.59156036376953 4.3750958442688 7.2404670715332 5.40180730819702 6.52615833282471 3.47284579277039 3.24406671524048 2.88786673545837 5.30401515960693 2.78672099113464 3.07728791236877 2.56322121620178 1.50901448726654 0.671993494033813 0.32582950592041 0.249096244573593 0.134399086236954 -0.161033600568771 -0.32211971282959 1.31812906265259 6.7197585105896 20.9257564544678 15.5316505432129 -1.07516729831696 -0.488484382629395 -0.54831075668335 -0.722056210041046 -0.392804056406021 -0.144909977912903 -0.345679074525833 -0.461840063333511 -0.423946976661682 -0.332507401704788 16.3351154327393 0.969980597496033 1.80227243900299 4.82642078399658 1.31948602199554 29.158390045166 29.4328651428223 22.7318859100342 15.3593111038208 10.5508613586426 16.7757091522217 15.6479787826538 10.6233539581299 11.8840103149414 10.1023073196411 7.19248485565186 7.01550102233887 6.52855157852173 6.62042474746704 6.70405435562134 6.92755460739136 7.20201301574707 7.20907545089722 7.36873006820679 7.25311279296875 6.8598804473877 6.94211387634277 7.06746959686279 6.47131443023682 6.54853391647339 6.51606178283691 6.63799285888672 5.84027624130249 5.56524896621704 5.39482498168945 5.00705766677856 4.68933153152466 4.17806768417358 4.63546276092529 5.51529550552368 5.27855014801025 5.10377645492554 5.82358455657959 6.92175817489624 6.08712863922119 7.35151195526123 9.21943855285645 18.0464878082275 23.788064956665 29.3020324707031 25.6337261199951 26.4503326416016 26.4882106781006 13.7648391723633
37.2248992919922 26.55588722229 20.2465744018555 15.3473377227783 14.7014274597168 13.2133913040161 11.8069868087769 9.63117599487305 7.88934946060181 7.38203382492065 4.66084718704224 8.28166770935059 5.58655595779419 6.40994787216187 5.65503644943237 1.75728261470795 1.82901954650879 3.36430549621582 3.19175338745117 0.804657578468323 0.700303494930267 1.29132533073425 0.140027314424515 0.00775654474273324 -0.0950829982757568 1.36465954780579 2.1305046081543 3.38232135772705 3.05205225944519 3.57622027397156 3.06570506095886 3.71763753890991 36.0231399536133 33.1388130187988 33.4676933288574 22.0616302490234 17.4302215576172 4.92623043060303 12.436731338501 15.9107227325439 2.9129273891449 7.65542984008789 5.05846548080444 16.6054229736328 37.2605934143066 23.4811134338379 16.8589420318604 23.1297473907471 25.5739974975586 13.563512802124 8.74751472473145 5.36305284500122 2.93858408927917 2.76788759231567 3.18623495101929 10.4717092514038 10.1817846298218 8.68125820159912 2.96988439559937 3.16584181785583 2.94841837882996 3.12102198600769 2.91855144500732 5.90441846847534 6.21713972091675 5.28563642501831 4.86166858673096 5.46503400802612 18.1766262054443 4.95040082931519 2.28369617462158 -0.0327204316854477 51.5067977905273 44.3576240539551 30.1435947418213 32.6105575561523 9.29868698120117 2.20323514938354 3.91654443740845 5.86068344116211 5.71889877319336 5.6574387550354 5.42216539382935 23.1233882904053 5.27059555053711 5.44671010971069 4.80424022674561 4.31917524337769 8.34649085998535 7.39267778396606 10.1099109649658 6.48055028915405 3.63897895812988 3.77447915077209 2.88558769226074 3.21447253227234 3.21169662475586 6.72858810424805 7.22898864746094 1.70930457115173 1.36337316036224 1.29712295532227 1.25530755519867 0.83884471654892 -0.234951347112656 -0.324081480503082 -0.000209998950595036 -0.401726245880127 3.16213011741638 14.2411918640137 6.96764755249023 4.07913494110107 -0.593232274055481 -0.010277627967298 0.148696064949036 0.316496580839157 0.220495238900185 -0.279725730419159 -0.238629832863808 0.208402901887894 3.68754243850708 1.6008894443512 1.59456074237823 8.95288562774658 6.68156719207764 2.48760843276978 42.1736030578613 34.7698631286621 14.8559646606445 21.4833755493164 19.7423248291016 12.4963188171387 14.9201145172119 12.006986618042 10.9476280212402 8.18959903717041 7.65662050247192 6.96462631225586 7.0320143699646 7.26371479034424 7.56921291351318 7.56668186187744 7.6936674118042 7.58847951889038 7.19486522674561 7.23331451416016 7.08691692352295 7.2962384223938 6.78261661529541 6.79517221450806 6.98846340179443 6.30098295211792 5.8836407661438 5.70024824142456 5.32702445983887 5.03925704956055 4.74549961090088 4.74201488494873 5.19070196151733 5.58789300918579 5.39489841461182 6.84886646270752 8.12424945831299 7.01157760620117 12.1322355270386 9.52684879302979 10.3506383895874 6.30458164215088 6.82299757003784 20.5884017944336 14.1249933242798 38.9373779296875 38.7811698913574 17.2177391052246
49.5907936096191 38.3445205688477 20.5771789550781 19.8970909118652 16.8008975982666 14.8572416305542 13.416298866272 8.97774887084961 8.32808208465576 3.91495871543884 10.2517995834351 8.10474491119385 2.40612125396729 7.26388263702393 2.11835503578186 2.24051976203918 1.1487945318222 3.62603044509888 3.413738489151 0.742842316627502 1.35311615467072 0.900162756443024 1.037233710289 0.989070951938629 -0.150603055953979 2.43593454360962 3.63936328887939 3.50015497207642 4.07771682739258 3.32130289077759 3.08373475074768 3.85310578346252 47.7939643859863 45.1546745300293 45.751106262207 23.3768291473389 22.1499996185303 4.94498825073242 3.14048147201538 27.0503273010254 11.7534065246582 2.83328795433044 -0.15902291238308 18.7008457183838 43.3978309631348 33.3175010681152 16.7643394470215 32.9756355285645 36.1454086303711 10.0371475219727 5.83610105514526 2.98261308670044 2.86912703514099 3.37374639511108 12.0868473052979 11.4825048446655 9.63053417205811 3.17583680152893 3.20336508750916 3.26829051971436 3.05074954032898 3.19644212722778 6.30506753921509 6.64273500442505 5.61434268951416 4.69600439071655 5.01546669006348 4.05213022232056 5.52445554733276 5.02394390106201 0.698195993900299 9.23733043670654 16.825174331665 36.1518287658691 41.0615768432617 19.1881885528564 2.96837997436523 6.50900268554688 7.25057125091553 6.42743158340454 6.09307956695557 7.29905843734741 4.77038240432739 5.69835138320923 5.5213623046875 4.71802854537964 4.86305332183838 13.2331609725952 11.61403465271 13.3892011642456 8.47273635864258 5.51890134811401 3.94661211967468 3.68606877326965 3.61346745491028 3.39195275306702 7.71487522125244 3.06800293922424 15.4549722671509 2.97100234031677 2.22796297073364 2.38080811500549 1.97867584228516 1.01020073890686 0.251190215349197 0.11830873042345 0.114089794456959 -0.290700107812881 -1.38319730758667 4.08641338348389 0.225212290883064 -0.0881705433130264 6.40419912338257 7.7001838684082 7.91687870025635 1.34552109241486 1.2740490436554 0.436823129653931 0.425890922546387 0.948550879955292 1.73458003997803 1.38219249248505 1.42243051528931 1.61296164989471 9.98415184020996 0.786539852619171 4.32058715820312 34.3894920349121 31.4132213592529 28.7903327941895 15.8572092056274 19.0866279602051 11.9753112792969 13.9169521331787 9.79692459106445 9.15866851806641 6.99503326416016 7.38953065872192 7.62793684005737 7.46085166931152 7.80216360092163 8.05079746246338 7.94037961959839 7.53095579147339 7.02563333511353 7.39137363433838 7.63546562194824 7.08777570724487 7.06703615188599 7.31160593032837 6.93994283676147 6.30290079116821 5.96609258651733 5.60964488983154 5.29550313949585 5.04816722869873 4.89183902740479 5.43134546279907 5.74136686325073 5.49091815948486 7.87313365936279 9.66195964813232 8.17601680755615 8.95573425292969 15.3303556442261 7.32459402084351 4.81260681152344 6.08676767349243 6.18691301345825 7.09067392349243 6.52381467819214 6.72315216064453 33.4371109008789 26.4749794006348
14.6201457977295 42.2789840698242 29.9483604431152 22.4260540008545 18.7295055389404 17.0119438171387 11.6929903030396 9.68780899047852 4.28560972213745 13.4657487869263 9.89651393890381 6.96020936965942 9.35593605041504 7.84437656402588 2.76782369613647 1.45439457893372 4.27081441879272 4.05976390838623 0.796781480312347 1.41876089572906 0.949977397918701 1.09215927124023 1.23689329624176 1.00207042694092 2.78940272331238 4.14155912399292 3.90516304969788 4.75810670852661 4.20045804977417 3.41039991378784 3.95390152931213 -0.967970073223114 0.0702665746212006 14.5416774749756 44.7432556152344 22.2733707427979 31.8672904968262 40.491756439209 -0.422196418046951 18.6325187683105 10.4044399261475 1.83307373523712 -0.514451324939728 3.39814043045044 17.81764793396 34.9125900268555 7.8387246131897 7.73531150817871 12.1790618896484 11.066554069519 3.28808331489563 1.96508705615997 3.65349364280701 3.88944220542908 13.3659238815308 10.8713064193726 6.62147092819214 3.36127042770386 3.34593319892883 3.13127136230469 3.29370069503784 6.75433588027954 7.12823438644409 5.98485088348389 5.00629138946533 5.33361911773682 6.0690746307373 6.11978769302368 5.56989526748657 1.86795914173126 0.06333988904953 15.8564949035645 25.023775100708 2.24241137504578 1.90046513080597 3.35001993179321 8.95526599884033 8.92189979553223 7.00189638137817 6.97730207443237 7.47100734710693 9.40525531768799 15.3746290206909 5.94685411453247 5.05479574203491 5.19315195083618 11.55224609375 9.02951240539551 7.36392402648926 20.8630619049072 8.07665157318115 5.11260652542114 5.07650566101074 4.2930588722229 4.44029521942139 3.87263083457947 3.52466511726379 3.57832455635071 4.49693441390991 3.36715054512024 2.93473863601685 2.61293196678162 8.94895648956299 1.23003077507019 0.510836958885193 0.418371081352234 0.139294698834419 -0.632825314998627 -1.36277055740356 -1.193962931633 11.7332324981689 0.344192117452621 0.845158755779266 1.15176463127136 1.86006832122803 2.12056636810303 1.30204784870148 1.55113303661346 1.48224949836731 1.84654903411865 1.95624423027039 4.56525707244873 1.86337566375732 1.61650145053864 1.29712224006653 1.40470921993256 5.02768135070801 7.41477108001709 45.0862045288086 42.1357536315918 27.9805126190186 15.3194532394409 18.3925819396973 12.4038391113281 11.0713214874268 10.3583612442017 7.55468273162842 7.68515729904175 7.86137533187866 8.21778869628906 8.44406318664551 8.3224925994873 7.97701692581177 7.49081134796143 7.73185443878174 7.99444389343262 7.39095592498779 7.35970592498779 7.34734773635864 7.46648693084717 6.62607622146606 6.34033441543579 6.11214351654053 5.52538537979126 5.34430408477783 5.13377952575684 5.37707996368408 6.0709056854248 5.73947858810425 6.98915719985962 8.71516990661621 10.6770906448364 9.1018009185791 6.21396112442017 8.19467067718506 9.52309131622314 7.33322858810425 8.53584480285645 8.06728649139404 8.13841438293457 13.5166797637939 8.42772674560547 9.27496719360352 9.88021278381348
6.98354434967041 41.0815734863281 42.1559906005859 24.8462696075439 22.8110485076904 14.88805103302 11.9584360122681 10.9092960357666 20.4138851165771 12.8471851348877 8.34273910522461 12.1555442810059 9.68956851959229 3.12887072563171 3.21438765525818 5.09538125991821 4.87898111343384 1.05164110660553 1.49987816810608 1.00736916065216 1.14734935760498 1.29337871074677 1.06459927558899 3.12879610061646 4.03907680511475 4.40563774108887 4.39476013183594 5.12750577926636 4.01403951644897 4.74891424179077 6.27367305755615 0.60136890411377 -1.68634140491486 5.37356567382812 45.5553321838379 8.43051147460938 -0.113060101866722 0.142361789941788 0.0954117104411125 12.1792659759521 6.8927903175354 -0.0538638569414616 3.38434147834778 4.21009588241577 8.11810111999512 35.1694068908691 33.3211441040039 16.3738632202148 13.7315216064453 7.44001770019531 2.02162885665894 3.45875024795532 3.94734191894531 16.5511283874512 14.8110027313232 10.4353837966919 3.52569961547852 3.35141539573669 3.16161131858826 3.38926339149475 3.13927125930786 7.08697414398193 7.46632051467896 5.33687877655029 5.71335029602051 6.49509191513062 6.43314218521118 6.29107093811035 6.12918424606323 1.85856330394745 -0.693784892559052 0.00903825741261244 12.1642379760742 4.75901460647583 6.20233392715454 9.23536396026611 7.55422639846802 7.55088996887207 7.2890739440918 7.79928255081177 7.43739748001099 5.25832271575928 6.35551595687866 7.22375583648682 5.55305767059326 4.92378807067871 3.45963335037231 4.74367237091064 3.60771870613098 14.0835037231445 11.9917783737183 5.53817081451416 5.52021884918213 4.86299610137939 4.58992004394531 4.34369230270386 3.41649842262268 3.97200155258179 3.73349070549011 3.74340677261353 2.80637431144714 1.86734259128571 1.62564468383789 1.11981022357941 1.26627540588379 1.10203695297241 0.848358392715454 -0.380936235189438 -0.256738245487213 -0.0999512895941734 0.645222127437592 1.37122428417206 5.45675563812256 3.21585178375244 2.37834477424622 1.96873331069946 2.06567859649658 2.39777135848999 2.75168418884277 2.43116927146912 2.20298147201538 14.9023218154907 4.53589677810669 1.58047699928284 3.44259190559387 1.27112424373627 3.88401484489441 1.44886410236359 2.20422887802124 35.9189720153809 40.9223556518555 27.0432929992676 16.4481639862061 14.0200853347778 13.2052669525146 7.96344041824341 8.03088665008545 8.27419948577881 8.66918087005615 8.66479778289795 8.69095134735107 8.56183052062988 8.12608814239502 8.10397624969482 8.38483047485352 7.57054948806763 7.65655326843262 7.66209936141968 7.76516819000244 6.89398288726807 6.60881614685059 6.35269975662231 6.00224447250366 5.55871057510376 5.33815145492554 5.60994005203247 6.41103601455688 6.08668327331543 10.6786270141602 11.4252014160156 13.3840408325195 10.5272731781006 12.9677619934082 13.4324398040771 15.0334911346436 15.220609664917 13.6115713119507 9.32174396514893 9.28273391723633 8.29950904846191 9.91337013244629 9.303147315979 12.862024307251 13.595196723938
5.92618846893311 10.8277015686035 44.8274421691895 33.6791000366211 20.1649703979492 15.2496786117554 13.9043121337891 7.27353477478027 30.5485954284668 10.8607444763184 17.9424304962158 12.5650815963745 3.454754114151 4.11969947814941 6.32454490661621 5.97132015228271 1.23967218399048 1.31435871124268 1.5249570608139 1.21810913085938 1.35539972782135 1.11524045467377 2.1689281463623 3.30446982383728 4.98271560668945 4.55343151092529 6.25657796859741 4.42789745330811 4.27968215942383 5.85943078994751 6.71071147918701 1.03020918369293 -0.869683146476746 1.81349861621857 17.1611785888672 33.3733215332031 3.60425686836243 0.747734129428864 -0.655710756778717 -0.416015148162842 0.088981494307518 0.207638338208199 11.5599889755249 12.58385181427 3.32596302032471 18.5233402252197 45.3471183776855 18.7017307281494 9.41763210296631 4.15615558624268 4.18493223190308 4.49486970901489 22.0206451416016 18.3347129821777 13.9979820251465 3.82465982437134 3.41243767738342 3.16671514511108 3.41646385192871 3.21124172210693 7.71382617950439 8.14146327972412 6.71183729171753 6.11618709564209 6.99323701858521 5.48617219924927 6.91466617584229 6.83599281311035 4.53959226608276 2.72092962265015 1.22648060321808 0.936758637428284 16.5119781494141 26.3330059051514 16.2885875701904 11.6367454528809 11.2905378341675 8.02773761749268 9.21185398101807 8.61303234100342 5.64871692657471 14.6638402938843 9.83608531951904 6.19618797302246 6.21853828430176 3.88686680793762 3.9302089214325 6.63244819641113 4.30204725265503 4.95660972595215 5.90154314041138 5.84509325027466 5.66393423080444 5.78452634811401 5.24699449539185 4.61270761489868 4.56423807144165 8.40525913238525 3.79399251937866 4.0789098739624 3.81202530860901 2.62926411628723 1.82117116451263 1.69458019733429 1.13473308086395 0.961894929409027 1.39124476909637 0.490603417158127 3.0003125667572 0.865007638931274 3.65065336227417 6.68085145950317 15.3577928543091 2.50828337669373 2.29462933540344 2.51822352409363 5.22316074371338 3.15596556663513 2.73635196685791 5.57266902923584 1.94545364379883 2.09247040748596 1.78727114200592 1.56004297733307 2.54151201248169 12.6961231231689 6.88807582855225 8.81034183502197 3.87327408790588 4.2728328704834 34.6541137695312 39.5014419555664 18.6991291046143 18.0045337677002 8.94544410705566 8.43694400787354 8.72723007202148 8.62329292297363 8.96150398254395 9.14675426483154 9.01261234283447 8.55093097686768 8.31486701965332 8.34494209289551 8.62648773193359 7.89857244491577 7.8642144203186 8.0711088180542 7.40227937698364 6.8776478767395 6.58917140960693 6.25403356552124 5.85922956466675 5.55353498458862 5.90480804443359 6.29821395874023 6.56001901626587 17.1896667480469 15.8505086898804 18.2871494293213 13.0738096237183 16.7923603057861 18.1440162658691 11.1755456924438 18.0614204406738 20.3926677703857 11.5805311203003 9.32488346099854 10.6572456359863 10.8249635696411 11.7948913574219 11.9341611862183 13.9662656784058 17.014347076416
5.51010704040527 6.52411985397339 46.8148765563965 46.3390617370605 20.5894508361816 18.9342002868652 6.65041875839233 0.749058067798615 30.6129817962646 3.33736658096313 26.7160739898682 3.8984591960907 4.94584655761719 2.57327699661255 7.14160346984863 6.78627300262451 1.22660446166992 1.62594878673553 1.25640821456909 1.44689393043518 1.18066835403442 1.23423075675964 3.81899857521057 5.74570894241333 5.2349214553833 7.52600193023682 6.10024976730347 5.34954500198364 7.56694984436035 8.06269931793213 8.23551177978516 0.975800275802612 -0.963480889797211 -0.23887811601162 14.7214508056641 7.95613050460815 3.62278985977173 3.47638416290283 6.36627674102783 12.2549238204956 0.44342315196991 -0.611851513385773 -0.649777412414551 6.7429027557373 -0.0709425434470177 -0.403910756111145 35.7923583984375 12.4413747787476 5.11023044586182 6.26312303543091 6.01246690750122 32.6885185241699 24.3417644500732 17.2085494995117 4.16832208633423 4.11252784729004 3.48094177246094 3.24636578559875 3.48198533058167 8.32587432861328 8.83705043792725 7.21338558197021 5.90168190002441 6.30177211761475 7.21608448028564 8.63269233703613 6.84586620330811 6.99941873550415 5.65666818618774 3.38583445549011 4.72713422775269 3.23395347595215 8.55108833312988 23.026237487793 11.8721904754639 12.8537406921387 12.7615518569946 8.75804328918457 14.1444892883301 9.11684131622314 6.1753363609314 15.6678676605225 7.5360164642334 8.23350238800049 7.11032581329346 4.68290424346924 3.85986852645874 5.44564342498779 6.02307462692261 5.99389410018921 6.25254011154175 6.02230548858643 6.0911021232605 5.88004493713379 5.86785221099854 5.27042102813721 5.0203218460083 4.79572486877441 4.94548749923706 4.93688488006592 3.69029211997986 2.53855681419373 2.40508794784546 1.54685246944427 1.53491425514221 1.74321603775024 1.11312282085419 0.457166612148285 1.69499492645264 7.50319957733154 2.10610055923462 2.010098695755 5.50496482849121 2.50385427474976 6.58313512802124 3.41175770759583 6.57272338867188 6.41669416427612 2.50300312042236 2.70849967002869 2.58329463005066 10.2127132415771 1.67678689956665 1.32358646392822 1.38546538352966 2.28290772438049 2.22579026222229 3.34946465492249 4.38345861434937 8.86655807495117 12.4751405715942 36.5195579528809 27.3798484802246 12.2828588485718 9.72127819061279 9.17044067382812 9.16609573364258 9.50342750549316 9.64970207214355 9.50763320922852 9.14602375030518 8.59403896331787 8.77721691131592 9.05642509460449 8.25605010986328 8.1786060333252 8.38608646392822 8.02582836151123 7.31300067901611 6.79216146469116 6.72016429901123 6.05381774902344 5.89655780792236 5.92885446548462 6.61770868301392 6.86602735519409 6.52066659927368 26.0947742462158 28.4400367736816 20.3128662109375 26.3515911102295 27.863697052002 16.2061519622803 6.91087865829468 13.6286792755127 19.8453750610352 10.9525060653687 13.3924207687378 12.5772562026978 12.4428071975708 17.9344959259033 22.8904552459717 18.3874053955078 20.8526916503906
6.35598182678223 -1.13418471813202 4.11226463317871 40.8296585083008 28.895809173584 8.51989459991455 21.2517147064209 2.20143795013428 27.8759078979492 0.622237026691437 28.4173755645752 6.55190515518188 2.58566522598267 8.40351676940918 8.63724517822266 2.36468434333801 1.74257552623749 1.1878297328949 1.3372198343277 1.47487509250641 1.30124199390411 4.32001447677612 5.57672643661499 6.24319076538086 9.27732372283936 7.15879201889038 6.5479621887207 7.79534864425659 9.93438720703125 10.0981473922729 8.10739135742188 1.50458121299744 -0.648180663585663 -0.553169012069702 3.05256819725037 3.75742959976196 3.66270613670349 3.38143968582153 0.741148948669434 2.58618569374084 1.32123363018036 -0.275529861450195 0.044983945786953 1.23759567737579 7.29312324523926 5.10242557525635 39.2970199584961 5.87879180908203 3.49844884872437 9.30394554138184 10.2216491699219 45.1768074035645 25.5499515533447 10.3667373657227 4.62522125244141 3.53814554214478 3.38963413238525 3.52040791511536 3.92653012275696 8.73454093933105 9.24050617218018 6.31234979629517 6.7227954864502 7.75710535049438 11.2061595916748 7.82140445709229 7.867751121521 6.25017404556274 5.72315359115601 8.99722194671631 11.9944658279419 3.46174478530884 6.8923602104187 34.6406097412109 15.043963432312 13.1708374023438 14.3292379379272 7.85328006744385 10.8662691116333 7.87448978424072 6.58094787597656 24.1236019134521 13.241024017334 7.97570705413818 8.10783290863037 5.42378807067871 5.68648290634155 8.88642978668213 11.3014497756958 6.77952289581299 6.41210842132568 6.2807502746582 6.2524037361145 6.1603045463562 6.02117109298706 6.01858425140381 6.07635927200317 5.83867168426514 5.54253244400024 4.45516681671143 3.68240427970886 13.0392532348633 12.0758152008057 4.53263330459595 2.06556057929993 1.8516366481781 1.77163326740265 3.21916079521179 1.95212817192078 2.27803492546082 2.1027090549469 2.40723490715027 18.720085144043 11.2057933807373 6.94462251663208 10.4535894393921 9.1532564163208 9.9309663772583 2.95871734619141 2.85709524154663 2.44745969772339 2.28627562522888 2.35882687568665 2.13588643074036 6.3821587562561 3.40594172477722 3.31166839599609 6.89388704299927 4.79558324813843 3.95453143119812 4.95437860488892 40.2657737731934 39.5700912475586 15.3861417770386 10.9745435714722 11.5610952377319 11.3983135223389 10.0927534103394 9.96506404876709 9.82233333587646 9.32053184509277 9.24320030212402 9.54112720489502 8.64236545562744 8.53559494018555 8.53610801696777 8.57617473602295 7.61493492126465 7.39770126342773 6.95854997634888 6.4936900138855 6.09211492538452 5.85613393783569 6.36519145965576 7.16226148605347 6.81711578369141 5.45544290542603 35.7980918884277 40.1454048156738 30.0072441101074 37.9606094360352 39.8954734802246 22.1210632324219 8.12092304229736 9.60394287109375 12.3371744155884 14.0539121627808 17.0144500732422 27.1198902130127 20.2117958068848 16.4628944396973 14.6347131729126 12.4624309539795 13.5029745101929
-0.890768766403198 8.57139301300049 14.7115612030029 39.8689460754395 40.5674247741699 21.1118602752686 32.2423248291016 0.357644706964493 2.47182631492615 0.343488872051239 10.1104173660278 10.3380899429321 10.7865343093872 10.9483022689819 1.69932436943054 2.05129957199097 1.79412865638733 1.43746852874756 1.58497798442841 1.39717853069305 3.04638838768005 4.64066886901855 7.37206220626831 7.02602386474609 10.2406225204468 8.02224349975586 9.5819091796875 12.284158706665 12.6849536895752 10.0746669769287 7.79985475540161 6.6648154258728 5.07998085021973 3.74780368804932 3.80652928352356 3.71819233894348 3.77608013153076 1.1149514913559 18.8202362060547 3.49844264984131 2.0292820930481 0.741604328155518 0.155623525381088 0.0102168582379818 1.11570274829865 0.0528995953500271 27.9580898284912 2.04520058631897 1.73043465614319 8.17164134979248 -0.150512516498566 47.9769287109375 36.107349395752 5.70983600616455 3.81736326217651 3.64139413833618 3.56976819038391 4.33177757263184 9.54670524597168 10.1544094085693 7.99603796005249 7.16057348251343 8.33560085296631 16.5510787963867 8.61319637298584 8.70358753204346 7.7295446395874 6.19672060012817 8.39434909820557 19.5269527435303 14.7089853286743 11.2871770858765 4.88620948791504 19.9670143127441 15.9137325286865 16.8527870178223 15.5117330551147 9.05697345733643 9.6347770690918 9.02289962768555 4.97885847091675 19.0826015472412 20.1929130554199 10.4436321258545 10.3604764938354 7.11982679367065 5.74213266372681 6.18681716918945 7.27456951141357 7.17139530181885 7.14296054840088 6.62430620193481 6.63619232177734 6.42056035995483 6.44591379165649 6.3445143699646 6.33694982528687 5.77298498153687 5.45883274078369 4.5453462600708 2.67200756072998 2.74980783462524 4.43950700759888 10.6162586212158 5.07068204879761 6.34552240371704 6.05465126037598 5.093092918396 2.24224543571472 2.45090055465698 2.50204253196716 2.55838394165039 2.7005729675293 2.55698251724243 2.89672636985779 2.80648040771484 2.96239066123962 3.07411766052246 3.12616205215454 2.85014939308167 3.03456616401672 2.61397075653076 2.44051289558411 2.2120623588562 3.53720998764038 3.98565030097961 4.95348024368286 5.64199018478394 5.73682928085327 5.53749990463257 5.22878694534302 6.22440433502197 28.5320701599121 23.6545314788818 15.8779106140137 15.715106010437 12.7353115081787 10.8260116577148 10.3986406326294 9.86846446990967 10.1456184387207 9.52548503875732 9.83098125457764 8.92818164825439 8.93197536468506 8.93187618255615 8.01973438262939 8.21711540222168 7.41699266433716 7.10834455490112 6.33951044082642 6.11175107955933 6.5953893661499 7.41307497024536 7.05770540237427 6.81452322006226 4.93257093429565 4.5821533203125 14.2193994522095 4.56764888763428 4.20463275909424 35.768123626709 29.8238048553467 17.7255096435547 18.3502750396729 15.8697834014893 16.7452144622803 12.8701333999634 15.0423793792725 13.9994173049927 16.7928943634033 14.0882549285889 15.4349365234375 8.82192611694336
-1.02496910095215 -1.06533086299896 -0.481783658266068 0.163246378302574 20.0640144348145 4.53326559066772 2.09083032608032 15.1473445892334 0.465027332305908 1.02117478847504 0.505182087421417 17.4330825805664 16.7496471405029 1.31908810138702 1.30269753932953 1.86467707157135 1.49685716629028 1.68462097644806 1.49381959438324 1.38676822185516 5.48630475997925 8.92464733123779 7.57601737976074 13.4098615646362 7.09284019470215 8.97358989715576 16.5807285308838 16.0864753723145 14.2754011154175 11.3899917602539 8.54526042938232 6.89518260955811 5.20748901367188 3.945472240448 4.41449165344238 4.37405443191528 3.71406292915344 2.09244346618652 3.79347085952759 3.44176769256592 3.61236882209778 1.96814239025116 0.152373269200325 -0.0594590716063976 1.2344583272934 0.673617601394653 15.1066627502441 1.87081658840179 1.60151755809784 21.887264251709 -0.501457095146179 18.1323871612549 8.09665489196777 4.71815824508667 4.09867238998413 3.37962818145752 3.57820653915405 10.3326902389526 11.1572647094727 8.6445426940918 6.90582418441772 7.47844362258911 8.63787746429443 22.3600997924805 9.80116748809814 8.49741458892822 6.87664365768433 8.41901683807373 30.0140647888184 24.2820835113525 22.0387134552002 28.8293228149414 26.5183925628662 24.4605808258057 21.9541301727295 18.7990894317627 17.9909896850586 13.3304109573364 11.152289390564 10.4192113876343 6.60570192337036 5.38327789306641 14.3270664215088 14.4492301940918 8.78708934783936 11.9969825744629 11.1251020431519 8.17589855194092 8.11833667755127 8.42732715606689 7.62930965423584 7.88806295394897 6.89112997055054 6.85206699371338 6.49259901046753 6.64579486846924 6.33221387863159 5.89149141311646 5.29838895797729 4.21618843078613 3.46207022666931 2.58181214332581 1.93023705482483 2.76348519325256 18.4242973327637 14.4835329055786 10.9501104354858 9.7273006439209 9.35827350616455 3.96779370307922 2.89796042442322 3.32471942901611 3.23824691772461 3.3656747341156 3.24416208267212 3.17165565490723 3.14775991439819 3.42047572135925 3.547691822052 3.29236745834351 3.31353902816772 6.67634916305542 6.80416774749756 4.63775634765625 5.23738956451416 5.7455039024353 6.97085094451904 6.6094536781311 5.54518508911133 6.7814302444458 7.4364709854126 7.7622218132019 8.81073474884033 25.2188568115234 24.3733825683594 20.0686073303223 14.9288053512573 13.2177238464355 10.7609453201294 10.2630033493042 11.3469362258911 10.4083280563354 9.30656242370605 9.43111610412598 9.31813526153564 8.62698078155518 8.50196647644043 8.70213031768799 7.84874057769775 6.90068244934082 6.2475700378418 6.54278326034546 7.27682876586914 7.46682691574097 7.10322189331055 7.13023233413696 5.41073083877563 4.73235464096069 4.70713329315186 14.3753843307495 14.819465637207 26.3912906646729 29.3809757232666 17.4646949768066 21.4581565856934 18.2014503479004 14.8864574432373 15.8628377914429 17.752513885498 17.7510776519775 15.9039220809937 15.7961101531982 15.151008605957 11.3845043182373
0.00971622671931982 0.525801420211792 -0.315819591283798 18.195369720459 3.47343349456787 34.9221801757812 1.31540036201477 2.85151743888855 2.00617861747742 0.612112998962402 0.919173002243042 27.4695148468018 26.1758995056152 1.31406617164612 1.8713002204895 1.41554832458496 1.55700516700745 1.72041749954224 1.53524136543274 6.65475940704346 10.4734678268433 9.99708366394043 18.619213104248 11.5838022232056 11.8562726974487 26.1517200469971 25.5883674621582 18.4662132263184 15.1363277435303 12.031081199646 9.08830547332764 6.84870719909668 5.45866680145264 5.38812637329102 8.56673908233643 8.96961498260498 3.98703002929688 4.07514095306396 3.74628591537476 3.95132613182068 3.79490089416504 2.06092739105225 2.67655420303345 1.44887471199036 0.834832847118378 1.52645909786224 2.24444484710693 2.05901885032654 2.13222599029541 31.2465915679932 0.00712087005376816 7.21737337112427 10.4793529510498 6.17100048065186 3.39331293106079 3.63917946815491 11.600869178772 11.8598346710205 9.12627124786377 7.43255043029785 7.93274021148682 9.46188259124756 6.87937068939209 8.73462677001953 10.1249704360962 7.38680028915405 7.31658744812012 31.776948928833 42.3648796081543 35.9428596496582 32.843921661377 20.4743728637695 26.9185352325439 34.6840171813965 24.0274353027344 23.4194278717041 21.8990936279297 18.249792098999 10.4710645675659 12.1371641159058 14.5820865631104 16.4987564086914 22.2190704345703 19.7648391723633 16.5382900238037 15.6055564880371 10.9266662597656 10.3081102371216 12.6433935165405 11.1623764038086 8.0606746673584 8.86124992370605 7.35763311386108 6.93959951400757 7.04966259002686 6.71160697937012 6.23629140853882 5.70674991607666 4.84430551528931 4.3061089515686 3.47191905975342 2.86001372337341 3.07095646858215 2.11110067367554 1.99556803703308 2.18748116493225 2.17587924003601 2.53388404846191 15.2816467285156 3.1797616481781 8.78700828552246 4.71767044067383 3.56864213943481 3.63908624649048 4.2664852142334 3.5599844455719 3.96565866470337 3.9372398853302 4.14973449707031 10.771466255188 9.9650354385376 10.1444644927979 9.35690593719482 7.77916526794434 7.85055208206177 8.32314777374268 7.9111533164978 7.64905452728271 7.8529200553894 8.80855941772461 12.3880023956299 9.84711933135986 11.3933391571045 19.6204643249512 35.0169372558594 29.8302268981934 20.74582862854 14.877293586731 11.0284271240234 14.4403409957886 11.0666847229004 10.8575878143311 10.8728971481323 9.71123886108398 9.74372959136963 9.50354385375977 9.74404239654541 8.25133228302002 8.15219974517822 6.59959363937378 6.47598743438721 6.97408485412598 7.75581645965576 7.28710985183716 7.27742528915405 17.2111988067627 14.4866991043091 8.1379280090332 12.5212135314941 21.3211765289307 6.95581912994385 13.8469791412354 22.6281604766846 25.8603534698486 21.9455394744873 19.1258373260498 17.1306552886963 18.3655395507812 23.3309574127197 23.3538780212402 20.8924808502197 17.8965835571289 14.0357179641724 17.1583595275879
1.2280433177948 1.16062986850739 0.227440133690834 -0.235461056232452 -0.461336493492126 4.17784881591797 5.22858858108521 3.31585311889648 1.20231866836548 1.84134697914124 0.0694771632552147 0.422032535076141 1.32475006580353 1.94459545612335 1.43283069133759 1.64786076545715 1.80151307582855 1.59364950656891 8.01012897491455 10.1596059799194 13.1971206665039 29.5113754272461 15.236289024353 16.8922843933105 19.6739196777344 37.9268989562988 37.1056671142578 21.0826473236084 17.2093410491943 12.1417818069458 10.4482851028442 7.09936809539795 7.36737108230591 4.1771879196167 3.94197654724121 4.72606611251831 4.28015184402466 4.39225721359253 4.2918004989624 4.10761022567749 4.00175428390503 3.01569151878357 1.5683821439743 1.44526386260986 2.8337709903717 2.48384261131287 2.50160932540894 2.45558881759644 0.0937414765357971 -0.151306092739105 27.5405883789062 2.36367559432983 3.58522868156433 6.00203847885132 3.71122479438782 3.33868885040283 12.644359588623 12.8108654022217 7.93300533294678 8.74448394775391 9.40596389770508 10.035304069519 11.4222354888916 12.536768913269 8.36763668060303 8.26229381561279 26.7072982788086 3.08268857002258 12.0274610519409 11.0805749893188 1.92305588722229 5.58404922485352 16.7835254669189 44.5319900512695 32.6984100341797 31.6248264312744 14.6279907226562 23.2043132781982 11.9862251281738 9.87462997436523 30.3092975616455 34.0576095581055 16.4940986633301 25.5803203582764 24.1156463623047 15.9619388580322 15.0818939208984 14.5070743560791 13.255518913269 17.291955947876 11.2461614608765 8.36549186706543 7.60853290557861 7.51715993881226 7.1473970413208 6.61336612701416 6.02647113800049 4.89655065536499 4.55930185317993 3.76061964035034 3.37947297096252 3.24539732933044 2.81440663337708 2.81628847122192 2.94461941719055 3.17564272880554 2.73745894432068 2.46138191223145 3.26673054695129 4.55492162704468 21.9265995025635 20.9213218688965 6.37771320343018 4.2672643661499 4.82568740844727 4.60399389266968 4.48121404647827 4.2259955406189 16.892183303833 18.4336452484131 16.7002029418945 12.3205575942993 11.2000751495361 9.46281433105469 8.14965534210205 8.71730995178223 8.29091739654541 8.23507118225098 9.46363830566406 9.76959037780762 9.017822265625 8.90858268737793 9.2148551940918 9.7187557220459 10.3572521209717 33.6204605102539 30.8414402008057 15.0208559036255 19.5805225372314 13.8495759963989 13.5641050338745 12.9052972793579 11.3003120422363 11.3555126190186 10.7523231506348 10.9109153747559 9.20192527770996 9.0562105178833 7.7661509513855 6.79545021057129 7.31748485565186 8.08249092102051 7.59742832183838 7.22095489501953 7.26620674133301 21.8613815307617 8.69182014465332 7.32859373092651 15.9659805297852 5.24468469619751 16.0423011779785 20.4845752716064 22.9541988372803 27.9040336608887 25.5313091278076 23.2419204711914 20.7746353149414 20.1634273529053 19.5245609283447 21.4664325714111 22.2839641571045 19.3566226959229 13.8581924438477 8.95932102203369
1.36961030960083 1.35108482837677 1.74501621723175 1.92131984233856 2.080157995224 2.68514370918274 3.14242100715637 2.64807724952698 2.11650156974792 1.99027323722839 1.84826266765594 1.61504828929901 1.78986489772797 2.10963463783264 1.75108981132507 1.88254964351654 1.67705535888672 5.80543613433838 8.95806503295898 18.2580623626709 23.1259441375732 42.104907989502 27.101863861084 30.8714027404785 13.3590087890625 15.8002433776855 33.4771041870117 27.3179016113281 15.8523187637329 13.9260683059692 9.73539924621582 9.75957298278809 7.8960223197937 6.75336885452271 5.75285387039185 5.25499773025513 5.00942039489746 4.46352529525757 4.55008029937744 4.28609371185303 3.26635384559631 3.3874819278717 3.07963466644287 2.95491075515747 3.02765274047852 2.6042788028717 2.87093758583069 3.13906717300415 2.64532017707825 0.76653665304184 2.64500761032104 3.56103801727295 3.24914312362671 3.73688840866089 3.40272641181946 16.0059566497803 16.7425994873047 11.1860055923462 9.51896095275879 11.659743309021 8.75479984283447 14.342155456543 16.8167266845703 11.8431310653687 12.1987295150757 23.2827072143555 1.40557932853699 1.97525203227997 11.0537796020508 5.27835178375244 1.50518274307251 8.08374691009521 7.53413867950439 47.3784370422363 46.3429908752441 44.6436195373535 9.83416557312012 18.2922992706299 6.486159324646 6.74981737136841 4.89093255996704 4.05397653579712 12.4926109313965 25.9630336761475 26.5525493621826 14.026683807373 9.29381847381592 8.94791507720947 8.01145553588867 15.202693939209 9.70905780792236 9.43990325927734 7.83683109283447 7.80779504776001 7.45071315765381 6.92464876174927 5.50113105773926 4.57764196395874 4.09837484359741 3.7237708568573 3.42518019676208 3.38506698608398 2.91810011863708 2.82523226737976 2.91417741775513 2.8652675151825 3.17070007324219 4.07952260971069 4.04849290847778 3.46931886672974 3.69889283180237 4.36936378479004 4.69878530502319 4.96212863922119 5.25120306015015 13.5203685760498 5.25802755355835 17.9258060455322 28.6610374450684 26.1833248138428 25.1688480377197 19.0548076629639 12.7365770339966 8.52152061462402 9.38857078552246 8.84384059906006 8.61026287078857 11.3807544708252 9.80724906921387 9.81763076782227 9.8632173538208 9.56894016265869 10.1625118255615 10.6255769729614 10.4735546112061 10.6213226318359 31.9340667724609 28.9018859863281 18.6743869781494 18.2633018493652 15.0260066986084 14.2154388427734 12.695876121521 12.5702953338623 12.7374124526978 10.201642036438 10.0817251205444 8.54452800750732 7.26207685470581 7.67496585845947 8.04198455810547 8.15199279785156 7.65755891799927 7.59504747390747 10.7847995758057 10.0839004516602 9.58798408508301 4.51696062088013 11.2516288757324 17.8158779144287 22.3490734100342 20.8724765777588 17.1471557617188 21.3632659912109 18.0916023254395 17.3488464355469 15.8247213363647 20.5711040496826 16.4850311279297 24.3799266815186 16.8781757354736 17.5682983398438 5.37734985351562 8.21356201171875
1.82552051544189 1.93873763084412 2.51599454879761 2.3281626701355 2.78274321556091 2.10260915756226 2.21842503547668 2.72596287727356 2.19898176193237 2.90961527824402 2.5123975276947 1.63611924648285 2.24143552780151 1.78926479816437 1.97162520885468 1.66168832778931 1.69736063480377 11.5053606033325 28.1650543212891 24.5382194519043 3.32739877700806 33.0378761291504 38.9512100219727 43.5261154174805 10.472469329834 28.6572589874268 45.4200668334961 39.3369216918945 19.5541152954102 12.8998403549194 10.3998746871948 11.2320594787598 8.67209720611572 7.03151845932007 6.34318876266479 5.85162925720215 5.2196307182312 5.18289232254028 4.71074056625366 4.51854658126831 3.65086030960083 3.61274003982544 3.23052740097046 3.29957795143127 2.80198502540588 3.15113401412964 3.51670718193054 3.43443870544434 3.83987665176392 3.28914022445679 3.19992136955261 4.01768732070923 3.60943818092346 3.87215042114258 20.9709606170654 22.4310665130615 14.5177764892578 10.8977956771851 10.5486078262329 12.7186632156372 19.1225452423096 26.5247917175293 15.2143983840942 15.7425222396851 22.2820205688477 2.618647813797 2.090336561203 2.0490550994873 1.86942660808563 2.16893267631531 1.14133298397064 6.38606452941895 7.5467963218689 13.6702404022217 11.0842981338501 7.01166963577271 7.4109411239624 17.4026489257812 6.74994850158691 5.06045007705688 5.80672121047974 9.89796447753906 4.61121559143066 5.8263988494873 13.2471446990967 10.5185918807983 15.9095849990845 10.523099899292 15.1177320480347 19.1082420349121 11.9932041168213 8.3498420715332 8.39694499969482 8.03315353393555 7.59216737747192 6.67988157272339 5.31434106826782 4.36251783370972 3.9032027721405 3.48978781700134 3.52715063095093 3.49850273132324 3.23991441726685 3.1148145198822 3.05515432357788 3.41121530532837 3.48161196708679 4.14190340042114 4.67367458343506 4.04720115661621 4.47601938247681 5.03541040420532 5.70502138137817 5.37971687316895 4.7366509437561 13.4431581497192 11.3170623779297 3.00966382026672 2.83061218261719 7.79289531707764 17.7741069793701 30.082649230957 20.6127891540527 13.2026786804199 9.34449481964111 8.98439693450928 9.82497978210449 21.0438613891602 11.291693687439 11.7369146347046 12.2843551635742 11.7762508392334 12.3170166015625 11.2218437194824 10.9494476318359 10.3996152877808 32.6741676330566 40.9837188720703 27.2817344665527 19.8701457977295 18.7413730621338 14.2489957809448 15.3234691619873 13.5897817611694 13.7917613983154 11.7359838485718 9.60819149017334 8.00069046020508 7.57815456390381 8.46511840820312 8.50524806976318 8.00017642974854 7.99223327636719 7.75327491760254 12.2262182235718 9.54335880279541 5.96455049514771 3.44991850852966 4.23742437362671 6.54719591140747 18.2215023040771 18.4630851745605 13.1757507324219 12.7088623046875 12.6922931671143 14.5273065567017 22.7972030639648 19.2008304595947 12.3802690505981 36.3554267883301 5.71642303466797 14.5335369110107 8.90165138244629 4.35894346237183
