NCOLS 173
NROWS 32
XLLCORNER 353984
YLLCORNER 6699168
CELLSIZE 16 
NODATA_value -3.4e+38 
1.94397556781769 2.09364318847656 2.27064418792725 2.23166465759277 2.00180864334106 1.99566423892975 1.79727828502655 1.59033870697021 1.22991013526917 0.933924674987793 0.806339383125305 1.00713741779327 1.71084308624268 2.1441969871521 1.89525961875916 2.41377711296082 2.95819759368896 2.73534607887268 2.82906556129456 3.24074196815491 3.50019359588623 3.56881499290466 3.54594373703003 3.3875527381897 3.35623860359192 3.74160313606262 4.34821510314941 4.67740535736084 4.88858842849731 5.01528406143188 5.03010368347168 5.0981912612915 5.05572032928467 4.71369743347168 4.64304447174072 4.87716674804688 4.92098379135132 4.98545455932617 5.08656215667725 4.98989152908325 5.22800159454346 5.53380680084229 5.77282762527466 5.97747993469238 5.94701623916626 5.95098495483398 5.92740631103516 5.99587869644165 6.20745944976807 6.31627178192139 6.4170298576355 6.47933006286621 6.85126972198486 6.38761901855469 6.03767490386963 6.07715559005737 6.65939998626709 7.37446928024292 8.17969036102295 9.16872024536133 9.49441432952881 8.52956199645996 14.4093198776245 18.5326957702637 14.367280960083 12.6000080108643 11.9963159561157 17.2620468139648 19.3848609924316 15.8651475906372 10.9694766998291 11.8656816482544 13.7556238174438 15.0394601821899 12.8818683624268 12.8237628936768 8.53416442871094 7.168053150177 7.10397911071777 4.34301280975342 2.69219398498535 3.85853457450867 4.56120491027832 5.7314772605896 7.01131820678711 8.15073585510254 8.78202342987061 8.77478981018066 8.6935567855835 16.1569213867188 23.6264190673828 19.9290428161621 28.4867553710938 13.3872766494751 7.7634801864624 3.05911111831665 2.12166118621826 2.87661457061768 3.17382597923279 4.39725542068481 1.25715410709381 -0.532698452472687 1.75818061828613 1.84544336795807 0.687930941581726 -0.907477557659149 -1.99497556686401 -2.6336772441864 -2.74223351478577 -2.6479229927063 -2.50597357749939 -2.33268022537231 -2.23982620239258 -0.0375933572649956 0.729424774646759 0.092016227543354 0.469086915254593 8.86374950408936 5.21974515914917 5.77759838104248 5.51946973800659 2.48317861557007 0.177884876728058 -0.189414113759995 0.337434768676758 -0.654877364635468 0.255570322275162 0.469974786043167 0.257742285728455 -0.0819895341992378 0.14788693189621 -0.993493616580963 -0.919943153858185 -1.03832912445068 -1.09038925170898 -1.37008512020111 -1.17858219146729 -1.21056199073792 -1.31659698486328 -1.44914531707764 -1.47074484825134 -1.49083244800568 -1.05558121204376 -0.323952853679657 0.536918222904205 1.13972628116608 1.48250865936279 1.49337804317474 2.74188351631165 4.54468727111816 5.38220262527466 4.82569694519043 3.97534489631653 1.35658085346222 1.35779225826263 1.17006611824036 1.04258704185486 0.924131870269775 0.77027690410614 0.581801116466522 0.754039704799652 3.16072034835815 4.84621477127075 5.83204412460327 5.76303434371948 5.15866994857788 3.77421474456787 2.05213594436646 1.20743143558502 0.970047354698181 0.553738594055176 0.212867900729179 0.0347461998462677
2.08306646347046 2.42341542243958 2.40883946418762 2.41640996932983 2.19719386100769 2.14848160743713 1.91526091098785 1.54486227035522 1.25511312484741 0.96786093711853 0.828979432582855 1.22768878936768 1.77352035045624 1.67616581916809 2.33650350570679 2.94967222213745 3.44244384765625 3.07077813148499 3.13740539550781 3.34882640838623 3.68440651893616 3.79384779930115 3.75813102722168 3.46851468086243 3.57925224304199 4.03933763504028 4.4774808883667 4.82963991165161 5.07198143005371 5.220862865448 5.23068904876709 5.26722478866577 5.19418478012085 4.93952608108521 4.8858494758606 5.14985656738281 5.28335666656494 5.371506690979 5.55516290664673 5.60723352432251 5.62876749038696 5.79646968841553 6.03677606582642 6.23282670974731 6.27970790863037 6.2582540512085 6.25272750854492 6.33021306991577 6.51967763900757 6.61733150482178 6.7594952583313 7.02971124649048 7.36530780792236 6.96874094009399 6.57831907272339 6.87718057632446 7.51826953887939 8.31872653961182 9.13855838775635 10.1581134796143 10.6994495391846 9.65567302703857 20.1229667663574 20.4867916107178 16.5224208831787 14.594277381897 13.3859071731567 14.0486497879028 9.80716133117676 12.3498163223267 11.2488050460815 11.1739635467529 11.0155038833618 10.212366104126 5.33354711532593 4.71182489395142 4.14574241638184 3.66131138801575 3.10065770149231 2.57376837730408 3.05527782440186 4.44218492507935 5.39703750610352 7.20576858520508 8.47157192230225 9.7484302520752 10.1517248153687 9.69261837005615 11.0565891265869 13.8039951324463 11.5605525970459 15.3093566894531 17.6719627380371 14.1871147155762 8.04884243011475 3.4475302696228 0.287541836500168 3.57483768463135 3.33557438850403 2.67625117301941 2.4128532409668 -0.287384629249573 2.58936357498169 2.41270327568054 -0.663147628307343 -0.765088140964508 -1.48533952236176 -2.57100486755371 -2.67400860786438 -2.5413990020752 -2.40145349502563 -2.21163010597229 -2.21275901794434 -2.31830072402954 -1.66254770755768 -2.09654760360718 -2.03090691566467 0.905935406684875 6.23735189437866 6.24606990814209 6.29101324081421 2.73605728149414 -0.905355930328369 -0.992343604564667 -0.901920258998871 0.0536033101379871 1.40733695030212 1.00740373134613 -0.490832716226578 -1.62495386600494 -1.52901458740234 -0.963289380073547 -0.746333360671997 -0.763642132282257 -0.768799126148224 -1.09344959259033 -0.954999029636383 -1.02645814418793 -1.16720151901245 -1.19468319416046 -1.19101452827454 -1.28158795833588 -1.02759075164795 -0.20180007815361 0.572201669216156 1.21627461910248 1.38867199420929 1.40178167819977 3.63029742240906 5.81772708892822 7.51782321929932 7.08719110488892 5.75221490859985 1.4253044128418 1.34620225429535 1.2487850189209 1.12908637523651 1.05685615539551 0.987954795360565 0.874128103256226 2.19010901451111 4.94524002075195 6.62257719039917 7.35025405883789 7.31244564056396 6.38819551467896 4.80261421203613 2.77654504776001 1.42139613628387 1.0931122303009 0.758040249347687 0.438058257102966 0.218544736504555
2.21167898178101 2.55553770065308 2.66164064407349 2.51519513130188 2.41318917274475 2.34164786338806 2.07595062255859 1.63428223133087 1.28900742530823 1.03407788276672 0.855632662773132 0.975652873516083 1.19480931758881 1.92705297470093 3.13037085533142 3.4697093963623 3.61661338806152 3.39828157424927 3.4638659954071 3.58666205406189 3.88167667388916 3.98756551742554 3.93721055984497 3.66512894630432 3.69767951965332 4.13700008392334 4.60411739349365 4.99407720565796 5.25448846817017 5.47097253799438 5.49173641204834 5.46729326248169 5.37616634368896 5.22234201431274 5.19046306610107 5.44607067108154 5.65344953536987 5.82365226745605 6.02161312103271 6.15639591217041 6.13114595413208 6.10654735565186 6.33226871490479 6.5109920501709 6.57718229293823 6.59165096282959 6.66573524475098 6.79711151123047 7.07864141464233 7.14618825912476 7.25180292129517 7.49702644348145 7.87831020355225 7.96735286712646 7.77170705795288 7.96937894821167 8.80670642852783 9.30229187011719 10.2671747207642 11.6110954284668 11.7123708724976 9.76524925231934 7.8038272857666 7.37488698959351 8.74723625183105 13.255054473877 12.5668058395386 9.64234066009521 9.20351409912109 6.95713567733765 7.22276496887207 7.13023519515991 6.19563865661621 5.84176206588745 5.37074327468872 4.93273162841797 4.41490077972412 3.93983912467957 3.36445617675781 2.93927216529846 3.8227174282074 5.29559564590454 6.57243633270264 9.39807796478271 10.7185573577881 11.5840463638306 11.4549388885498 10.6633415222168 8.40231227874756 7.1266303062439 9.26943111419678 8.87535190582275 9.90560436248779 15.6870012283325 7.89624643325806 4.46231651306152 0.665201425552368 -1.03651213645935 3.80759763717651 2.45340609550476 0.402728646993637 -0.984282493591309 -0.0457622595131397 3.34449148178101 0.442123025655746 -0.484333962202072 -0.831075549125671 -2.33981418609619 -2.59555268287659 -2.45902538299561 -2.2539427280426 -2.1210081577301 -2.14671993255615 -2.29060125350952 -2.17232656478882 -2.06557154655457 -2.00291132926941 -1.10138261318207 3.81730794906616 6.61186027526855 7.28941679000854 3.59646654129028 -0.850096940994263 -0.984806835651398 -1.22507405281067 -0.730572104454041 -1.15553867816925 -1.49732828140259 -1.52676129341125 -1.60256659984589 -1.38796305656433 -0.661006569862366 -0.445378631353378 -0.504526495933533 -0.450601845979691 -0.69127231836319 -0.537018537521362 -0.671548962593079 -0.762787997722626 -0.780261695384979 -0.730144262313843 -0.505114316940308 -0.493397384881973 -0.0405880101025105 0.711179196834564 1.28642821311951 1.44745802879333 1.38068759441376 4.45409727096558 5.97990655899048 5.71004676818848 5.87954759597778 7.47270536422729 2.19117593765259 1.4480916261673 1.37474119663239 1.30099558830261 1.17596852779388 1.11749422550201 3.42061448097229 6.49014091491699 8.52294826507568 8.7285795211792 8.91640090942383 8.84033584594727 7.87017345428467 5.97187423706055 3.68313980102539 2.21374344825745 1.29425132274628 0.943837225437164 0.613802194595337 0.541279852390289
2.33539819717407 2.6897497177124 2.80301213264465 2.67228865623474 2.63658857345581 2.54397583007812 2.25676846504211 1.76917231082916 1.35992658138275 1.13923394680023 0.928927600383759 0.825003087520599 0.853082180023193 2.18452405929565 3.6368145942688 3.88544225692749 3.81791090965271 3.79218149185181 4.19597244262695 4.13471984863281 4.2072868347168 4.19285583496094 4.04123497009277 3.89720940589905 3.78615379333496 4.25072574615479 4.7553539276123 5.16260147094727 5.44704580307007 5.70427131652832 5.72850465774536 5.67334222793579 5.5472936630249 5.39157676696777 5.44520235061646 5.77797698974609 6.0103554725647 6.28923749923706 6.55491065979004 6.70121097564697 6.70847797393799 6.66738271713257 6.7345929145813 6.8737325668335 6.95343637466431 7.17516803741455 7.27369260787964 7.31663370132446 7.50110769271851 7.6575722694397 7.77600526809692 8.093918800354 8.57387924194336 8.74126529693604 8.84255218505859 9.10136127471924 9.98276138305664 10.4014902114868 11.441502571106 11.9666881561279 12.2944917678833 10.171630859375 8.52883338928223 7.35604286193848 7.17479705810547 7.15410041809082 7.23549222946167 7.20178508758545 8.36994552612305 7.3320689201355 6.65457010269165 6.31999683380127 6.23150253295898 5.94587707519531 5.51892328262329 5.12010192871094 4.81100416183472 4.3497200012207 4.28024101257324 4.07209300994873 5.05856990814209 6.42077350616455 8.06283187866211 11.4615230560303 13.2550859451294 13.8729734420776 13.3410444259644 11.7843685150146 9.02724742889404 5.72801923751831 6.13552141189575 4.69193267822266 2.49681401252747 9.90720844268799 7.00319242477417 6.18339014053345 1.81050848960876 -0.821319460868835 -1.08188426494598 -0.292657405138016 -0.443543612957001 -0.856940448284149 -1.1278612613678 -0.31011489033699 0.880260169506073 -0.367832511663437 -0.229943916201591 -0.272631764411926 -2.59711050987244 -2.21057081222534 -1.91563189029694 -1.94366025924683 -2.04334354400635 -2.14648461341858 -2.01832437515259 -1.94981253147125 -1.70509278774261 -0.789738416671753 2.28680276870728 6.34207248687744 7.52540349960327 4.17419004440308 -0.693929076194763 -0.930862903594971 -1.1687638759613 -1.19931721687317 -1.37490653991699 -1.51529157161713 -1.60755395889282 -1.48468601703644 -1.14661121368408 -0.367022633552551 -0.253038227558136 -0.359730660915375 -0.350970685482025 -0.585613548755646 -0.448153913021088 -0.549882173538208 -0.456022590398788 -0.376164823770523 -0.307760983705521 0.0295853577554226 0.0555637925863266 0.324374049901962 0.908760666847229 1.41731655597687 1.53310191631317 1.30094647407532 1.02132332324982 0.789116978645325 0.784217119216919 0.75538569688797 0.954861342906952 1.46994388103485 1.550332903862 1.50558125972748 1.43677735328674 1.22620689868927 1.14071154594421 5.21493577957153 8.26429080963135 10.6260690689087 10.8964042663574 9.90469646453857 9.43968200683594 8.97496032714844 7.30754852294922 4.84682559967041 3.23092603683472 1.83966052532196 1.18434286117554 1.01272332668304 0.945748329162598
2.45032739639282 2.82533764839172 2.94472861289978 2.80471467971802 2.83966135978699 2.7534065246582 2.43625354766846 1.92060720920563 1.4432008266449 1.21937727928162 1.05624294281006 0.88931792974472 0.865772545337677 2.75534439086914 3.93007636070251 4.11868047714233 4.210768699646 4.28876209259033 4.68261051177979 4.5910325050354 4.28754997253418 4.20793724060059 4.15658903121948 4.06453037261963 3.99781250953674 4.37302827835083 4.92069101333618 5.36683511734009 5.6720175743103 5.91097354888916 5.93402099609375 5.88581323623657 5.72922706604004 5.56293630599976 5.7040958404541 6.13882350921631 6.38496255874634 6.70407724380493 7.01813459396362 7.19186067581177 7.21209192276001 7.20927476882935 7.24932527542114 7.3138370513916 7.46726608276367 7.65893602371216 7.78105306625366 7.97623252868652 8.16384696960449 8.15029048919678 8.32257270812988 8.76867961883545 9.49435138702393 9.90310573577881 9.8158655166626 10.0702724456787 10.612756729126 11.4676218032837 12.1760816574097 12.8749532699585 12.7462425231934 10.9589748382568 9.06215476989746 8.06599521636963 7.63993263244629 7.29093456268311 7.30763387680054 7.22637939453125 7.08923244476318 6.93689632415771 6.73925638198853 6.45136404037476 6.36901521682739 6.14197778701782 5.73154067993164 5.35925817489624 5.62435817718506 5.6244478225708 5.64938497543335 5.44603109359741 6.36665105819702 7.52160787582397 9.53778743743896 13.9371709823608 16.3831615447998 16.5439434051514 15.9922981262207 13.8454561233521 10.3761615753174 5.88524007797241 2.89759516716003 2.14501357078552 2.48283457756042 6.61486053466797 5.73695278167725 5.56740236282349 4.38086414337158 1.23271358013153 -0.378298193216324 -1.20518755912781 -0.558664441108704 0.130203679203987 -1.51756739616394 -2.27235913276672 -0.659657835960388 -0.100758843123913 0.147750318050385 -2.5907928943634 -2.42169618606567 -2.06016492843628 -1.80779814720154 -1.7765851020813 -1.95408535003662 -2.03017497062683 -1.92312490940094 -1.87885582447052 -1.6293568611145 0.91522216796875 3.82689118385315 5.87478923797607 6.50929737091064 4.70917463302612 0.271522909402847 -0.809418439865112 -1.06455385684967 -0.974755227565765 -1.10041546821594 -1.42333602905273 -1.42810142040253 -1.28277838230133 -0.891454994678497 -0.14250060915947 -0.074172280728817 -0.228356376290321 -0.28307643532753 -0.579457879066467 -0.331220179796219 -0.266792804002762 -0.104117058217525 0.0746986567974091 0.481207400560379 0.80266547203064 0.435451954603195 0.835979640483856 1.21188724040985 1.62813127040863 1.70242404937744 1.51645576953888 1.27274870872498 0.898314654827118 0.828172445297241 0.782471597194672 1.03287971019745 1.43856513500214 1.65938889980316 1.63689601421356 1.58237373828888 1.37736928462982 3.28698325157166 7.50020694732666 10.1737670898438 13.5046329498291 13.9527978897095 11.6511516571045 9.83807277679443 8.18537425994873 7.38068437576294 5.82322835922241 4.31870222091675 2.87447905540466 1.46034669876099 1.33976686000824 1.34357130527496
2.57165908813477 2.99082803726196 3.09310984611511 2.94038510322571 3.01399683952332 2.95005226135254 2.61923789978027 2.08774757385254 1.5668066740036 1.28960800170898 1.14827072620392 1.02570044994354 0.909978032112122 2.53825330734253 4.07002544403076 3.96034049987793 3.90174102783203 3.36584448814392 3.90236186981201 4.52341318130493 4.75487995147705 4.33544397354126 4.33925580978394 4.19395017623901 4.1482048034668 4.47178316116333 5.08565187454224 5.56083679199219 5.87804889678955 6.1230411529541 6.12414646148682 6.04457426071167 5.92325210571289 5.79889440536499 5.98663568496704 6.56927394866943 7.06538724899292 7.42842721939087 7.6446328163147 7.74021625518799 7.72584342956543 7.73859167098999 7.74979209899902 7.76265954971313 8.01323509216309 8.24184417724609 8.38017463684082 8.61262893676758 9.02912902832031 9.06564807891846 9.26224231719971 9.96112823486328 10.8231906890869 11.2568922042847 10.8917760848999 11.2181367874146 11.701940536499 12.3255977630615 13.3692512512207 14.3400764465332 13.6936683654785 11.8348026275635 9.68093585968018 8.56774234771729 8.23282051086426 7.82732963562012 7.41847610473633 7.33216857910156 7.18879556655884 7.05373001098633 6.8736686706543 6.59355211257935 6.33281660079956 6.13141536712646 5.7880392074585 6.20335006713867 6.46082973480225 6.5606689453125 6.73871517181396 6.69979047775269 8.07788181304932 9.78265380859375 16.0024318695068 19.786039352417 20.8553867340088 21.0340461730957 17.9644393920898 15.3384351730347 11.9513912200928 6.5787034034729 3.14924120903015 1.66048896312714 2.67889547348022 4.08405208587646 5.52063417434692 3.94190502166748 8.26239395141602 6.31651878356934 2.9294445514679 -0.181538984179497 0.178376644849777 0.915754735469818 -1.00400793552399 -2.29181957244873 -0.70328289270401 -0.117342486977577 -1.9200394153595 -2.54450440406799 -2.27449655532837 -1.99212968349457 -1.74073338508606 -1.69382309913635 -1.84890568256378 -1.85844314098358 -1.82616078853607 -1.81218159198761 -1.58436334133148 3.29605102539062 5.80665397644043 6.89471483230591 5.62611532211304 5.62941598892212 1.64084792137146 -0.575639665126801 -0.938967049121857 -0.891065835952759 -0.863315880298615 -1.15549612045288 -1.1782408952713 -0.981341361999512 -0.299981474876404 0.0646681785583496 0.136545717716217 0.0363366082310677 -0.226182341575623 -0.261397659778595 0.117592766880989 0.127002537250519 0.237587139010429 0.3177630007267 3.77539134025574 4.0400824546814 1.55057513713837 1.09526860713959 2.13216519355774 2.26976776123047 1.90872895717621 1.77603209018707 1.62920558452606 1.37804937362671 1.19958436489105 1.00159800052643 1.35756433010101 1.64511048793793 1.80932831764221 1.76901578903198 1.75532412528992 1.57568407058716 2.08507347106934 4.57025194168091 12.3510284423828 17.4610633850098 17.2548332214355 12.9596672058105 12.4141826629639 9.26078128814697 6.36150360107422 5.58921098709106 4.51862478256226 3.50789213180542 2.05427098274231 1.56523990631104 1.6126846075058
2.70291137695312 3.15225601196289 3.28304958343506 3.0868866443634 3.1456503868103 3.10407686233521 2.78746199607849 2.26018238067627 1.71924734115601 1.38397741317749 1.20547139644623 1.07441627979279 1.04491674900055 0.777267754077911 0.950060546398163 2.0317165851593 1.92617964744568 3.47686839103699 4.61771583557129 5.10031652450562 4.96588897705078 4.4970383644104 4.28181934356689 4.24419546127319 4.25189161300659 4.57251453399658 5.22984313964844 5.7270679473877 6.05039691925049 6.3276538848877 6.36513662338257 6.22594451904297 6.13629150390625 6.31982898712158 6.86618995666504 7.31173610687256 7.65433835983276 8.0152645111084 8.19690227508545 8.29700469970703 8.28818798065186 8.29322242736816 8.32343578338623 8.3687572479248 8.67871189117432 8.91517066955566 9.12329292297363 9.37997531890869 9.86774730682373 9.99375247955322 10.3954076766968 11.1012926101685 12.191614151001 12.5489225387573 12.0419626235962 12.7728061676025 13.0967197418213 15.6652584075928 14.4976692199707 15.5915327072144 15.0895967483521 12.0894441604614 9.82252216339111 9.42953205108643 9.07182025909424 8.35934257507324 7.51730012893677 7.49614953994751 7.43088817596436 7.34758901596069 7.25306129455566 6.79643678665161 6.45510673522949 6.32363653182983 5.96353912353516 7.19227027893066 7.42057657241821 7.5903844833374 7.8962254524231 8.54586029052734 10.5562400817871 13.8569889068604 19.4042186737061 23.7905101776123 26.6897716522217 27.092737197876 20.9283885955811 14.839373588562 11.5199527740479 7.40692567825317 4.031005859375 2.05587148666382 3.0538604259491 2.88770604133606 5.49185800552368 5.02200794219971 9.21562194824219 10.2711668014526 7.87477827072144 0.629977583885193 -0.318747967481613 1.59072470664978 0.208114951848984 -1.50467252731323 -1.22539496421814 -2.01157689094543 -2.41102242469788 -2.44238424301147 -2.15826153755188 -1.93467438220978 -1.67414331436157 -1.60462462902069 -1.72752499580383 -1.68402695655823 -1.60373413562775 -1.36823654174805 -1.55135118961334 5.06769418716431 6.40117931365967 8.36985206604004 6.18610382080078 5.64088296890259 2.57914996147156 -0.344938725233078 -0.78622579574585 -0.778840720653534 -0.753467977046967 -0.826171040534973 -0.957831263542175 -0.759279549121857 0.145158156752586 0.278588682413101 0.358456075191498 0.353936046361923 0.319835931062698 0.42439141869545 0.666111588478088 0.566559910774231 0.519650042057037 0.422655671834946 6.76847457885742 7.98385763168335 3.02059531211853 1.20062828063965 1.29436659812927 1.76719665527344 2.06273341178894 1.96732044219971 1.88400077819824 1.9087461233139 1.85913729667664 1.51620030403137 1.65274798870087 1.9560558795929 1.96784389019012 1.91705548763275 1.88426399230957 1.61662650108337 1.15722107887268 0.793058753013611 5.90087652206421 7.46112871170044 8.89626026153564 14.0921831130981 14.551552772522 11.998420715332 7.3950834274292 5.34481573104858 3.99821043014526 3.10492372512817 2.25062561035156 1.67911338806152 1.84538602828979
2.84083771705627 3.31260371208191 3.41774082183838 3.65484976768494 3.31465530395508 3.28707337379456 2.93576836585999 2.39162445068359 1.8432332277298 1.47352468967438 1.29765856266022 1.11550605297089 1.08200228214264 0.970503330230713 0.633020460605621 0.767753839492798 2.41830778121948 2.93751931190491 4.1176609992981 4.21286106109619 4.32319593429565 4.83680534362793 4.44014549255371 4.28872203826904 4.42525625228882 4.64091730117798 5.36846256256104 5.91230773925781 6.26659870147705 6.79233646392822 7.07802867889404 6.98791742324829 6.66232204437256 6.94052982330322 7.64918422698975 7.86379909515381 8.22474384307861 8.65155792236328 8.8821849822998 8.94924259185791 8.93589019775391 8.93140029907227 8.92733764648438 9.09337997436523 9.45474720001221 9.71555709838867 9.85178756713867 10.1255512237549 10.6048460006714 10.6802034378052 11.1295289993286 11.9712066650391 13.2571077346802 13.6158409118652 13.1223306655884 13.77574634552 14.146167755127 16.1357097625732 15.5603370666504 17.2138156890869 16.7491683959961 13.317928314209 11.206618309021 10.5301055908203 10.079737663269 9.22861289978027 7.95852327346802 7.75767707824707 7.73387670516968 7.73680830001831 7.63371515274048 7.12717247009277 6.7886528968811 6.47451782226562 6.162766456604 8.42212772369385 8.62044906616211 8.78285694122314 9.14508724212646 10.1374387741089 12.5409326553345 16.2635707855225 24.0170822143555 31.5528945922852 34.308162689209 33.4368133544922 25.7464866638184 17.092456817627 10.8584566116333 7.66465854644775 4.51397609710693 2.37787747383118 3.66801071166992 2.58382344245911 5.69850969314575 5.5250449180603 12.6434469223022 15.1372499465942 11.1426687240601 1.69515430927277 -0.636514484882355 0.650998294353485 0.568908751010895 -0.941770970821381 -2.35436391830444 -2.00180649757385 -2.2224440574646 -2.11167550086975 -2.00226044654846 -1.90995180606842 -1.63995730876923 -0.27907931804657 -1.44042921066284 -0.649960219860077 -0.496296465396881 0.490354627370834 -0.213620007038116 -0.636301577091217 3.11098623275757 6.11804628372192 6.47738981246948 4.71301174163818 3.19188666343689 -0.157516688108444 -0.566592276096344 -0.604073226451874 -0.538256466388702 -0.439905315637589 -0.62949150800705 -0.393516927957535 0.436240404844284 0.575984716415405 0.561091899871826 0.630200326442719 0.836416244506836 1.15862083435059 1.03310167789459 0.952993810176849 0.718627989292145 0.460439562797546 0.292141854763031 1.58373594284058 3.94265270233154 1.40132975578308 1.51805341243744 1.82028830051422 2.2231912612915 2.18011283874512 2.13222289085388 2.25160789489746 2.35770559310913 2.08434081077576 2.09998559951782 2.19336795806885 2.13352751731873 2.0355179309845 1.90115857124329 1.72574973106384 1.27561283111572 0.950253665447235 0.581631243228912 0.450019091367722 1.15734112262726 5.3834753036499 6.22795629501343 6.15607452392578 6.51843929290771 5.92104148864746 4.29316329956055 2.68057870864868 2.01797866821289 1.77417409420013 2.05463027954102
2.98836731910706 3.48720908164978 3.56347012519836 3.79233241081238 3.72394919395447 3.31707787513733 3.08177900314331 2.64980387687683 1.95107293128967 1.55486118793488 1.40048694610596 1.2098296880722 1.0954555273056 1.00799095630646 0.634687840938568 0.868665218353271 2.22707676887512 2.91568803787231 2.85329556465149 3.34160542488098 4.26960802078247 4.56387233734131 4.50648641586304 4.44307851791382 4.37123441696167 5.05039262771606 5.93725061416626 6.45731687545776 6.72975826263428 7.20886278152466 7.54414701461792 7.52363443374634 7.30954837799072 7.59724617004395 8.26719665527344 8.49886608123779 8.92099285125732 9.39998626708984 9.63749599456787 9.72386074066162 9.63926982879639 9.65286254882812 9.57930088043213 9.86495494842529 10.2816123962402 10.517505645752 10.5645332336426 10.6632595062256 10.9036359786987 11.3000240325928 12.4343566894531 13.134690284729 14.7957553863525 13.7956161499023 13.6321620941162 14.8838224411011 15.0079479217529 13.5908937454224 16.6240482330322 16.834077835083 18.2574901580811 15.8705062866211 13.2482891082764 12.1998977661133 11.2813892364502 10.5201778411865 8.84067535400391 8.43745422363281 8.67017364501953 8.25285243988037 8.0757360458374 7.52419996261597 7.14098167419434 6.7006688117981 8.47771835327148 10.4367227554321 11.1348447799683 11.508246421814 10.303183555603 12.8704833984375 17.781005859375 18.833137512207 27.9965381622314 25.1623687744141 20.0761756896973 17.2706050872803 31.2793216705322 20.4704151153564 11.2119674682617 6.83965539932251 4.01226472854614 2.07016921043396 1.11092495918274 2.55165934562683 5.83315324783325 6.23191165924072 15.7053718566895 11.2357425689697 3.27166104316711 2.24928188323975 -0.725341022014618 -1.64256644248962 -2.15333080291748 -2.28305983543396 -2.11484885215759 -1.40807616710663 -1.87398970127106 -2.36801242828369 -1.95384430885315 -1.74096417427063 -1.6103789806366 -1.54716491699219 -0.473922371864319 0.421251147985458 1.34625566005707 1.94443643093109 -0.862724304199219 -1.58984243869781 -1.57887387275696 -0.00322384922765195 4.36664485931396 4.96409940719604 3.23666191101074 0.454679191112518 -0.355745196342468 -0.366797864437103 -0.318494707345963 -0.206597208976746 -0.368793725967407 -0.211202383041382 0.74065762758255 0.889213085174561 0.815400242805481 0.894188046455383 1.1739776134491 1.63960981369019 1.41712629795074 1.1774662733078 0.82005786895752 0.460683673620224 0.372821837663651 0.432147443294525 0.906509816646576 1.67133045196533 1.9627937078476 2.24209117889404 2.44886112213135 2.42018485069275 2.37233924865723 2.49262452125549 2.60371375083923 2.32993936538696 2.38584303855896 2.33097624778748 2.21330690383911 2.13081645965576 1.9566125869751 1.77167987823486 1.55900967121124 1.22963917255402 0.985234200954437 0.713938295841217 0.60825651884079 0.605851054191589 0.761827170848846 1.170285820961 3.54713225364685 4.38481569290161 4.33010959625244 3.02141261100769 1.95343363285065 1.89248037338257 2.28793144226074
3.4774477481842 3.68540072441101 3.69504404067993 3.92503666877747 3.88810610771179 3.46774506568909 3.40597701072693 3.38724064826965 2.50121665000916 1.61191284656525 1.49276697635651 1.30274796485901 1.10083794593811 1.02982997894287 0.700223445892334 1.05072045326233 1.21456718444824 3.10271883010864 3.0147852897644 2.70160341262817 3.58185887336731 4.60807991027832 4.86169290542603 4.90919351577759 4.65518140792847 5.64630603790283 6.38287305831909 6.92409706115723 7.381751537323 7.61525774002075 7.94715642929077 8.08336925506592 8.12005710601807 8.45576190948486 8.96363162994385 9.18034172058105 9.73649120330811 10.2472534179688 10.5261583328247 10.5370397567749 10.479133605957 10.4198169708252 10.3854570388794 10.8403511047363 11.224160194397 11.1917953491211 10.8022451400757 10.8641386032104 11.0495462417603 12.3230972290039 13.5678625106812 15.1079568862915 16.2812347412109 15.1984243392944 15.6109647750854 16.5310707092285 16.327112197876 15.833366394043 17.4370365142822 17.2384624481201 14.5208587646484 17.6834449768066 15.8740196228027 13.2956914901733 12.8642778396606 12.1703462600708 10.1910133361816 10.2129354476929 10.5587348937988 8.77729225158691 8.60321998596191 7.98575401306152 7.49904155731201 7.85154104232788 12.7290420532227 13.3479518890381 13.3102445602417 13.3571338653564 11.5537872314453 11.4899415969849 11.9085474014282 19.2472667694092 17.3678131103516 9.18734073638916 5.75786781311035 5.07257318496704 9.30742835998535 20.7486667633057 12.4880361557007 7.28179168701172 3.45701313018799 1.627436876297 1.62624502182007 3.81447911262512 5.48295164108276 7.47729825973511 7.16461038589478 4.79132461547852 4.37101793289185 3.17009449005127 -0.657199323177338 -1.85184943675995 -2.0349497795105 -2.11958336830139 -1.51039910316467 -0.346489578485489 -1.21730208396912 -2.04017543792725 -1.5045268535614 -1.06930136680603 -1.14008128643036 -1.54036521911621 -1.55195844173431 0.174633741378784 0.18832129240036 -1.68177795410156 -1.5437068939209 -1.51536166667938 -1.55504786968231 -1.57270264625549 1.47354793548584 1.85576891899109 1.94222617149353 0.5745609998703 -0.205561205744743 -0.106158375740051 -0.0614689514040947 0.0308770798146725 -0.0917403772473335 -0.00492381677031517 1.0267436504364 1.14999842643738 1.00932621955872 1.1101461648941 1.51139795780182 1.98808717727661 1.70407140254974 1.34982144832611 1.76660120487213 0.701777219772339 0.630861222743988 0.590800166130066 1.14719271659851 1.93083882331848 2.42069554328918 2.78893375396729 2.8504536151886 2.73011493682861 2.61670970916748 2.71560335159302 2.77079057693481 2.45776009559631 2.49521350860596 2.44154477119446 2.32143521308899 2.19547009468079 2.49482893943787 2.3836030960083 1.72421824932098 1.41312408447266 1.29781651496887 1.14746129512787 0.936034500598907 0.822920262813568 0.940811216831207 1.25771307945251 1.50443828105927 1.67264521121979 1.83840918540955 1.97331440448761 2.1828887462616 2.07066226005554 2.53099584579468
3.99426651000977 3.96893453598022 3.79318785667419 4.06868839263916 4.03275489807129 3.55486798286438 3.8317711353302 3.74293327331543 2.7967472076416 1.82142794132233 1.57316303253174 1.3717303276062 1.14686524868011 1.04907667636871 0.69938451051712 0.534556090831757 1.17115962505341 2.94516277313232 3.09239459037781 2.22077512741089 3.22938632965088 3.55061602592468 4.61950731277466 5.80811405181885 5.35430145263672 5.83281087875366 6.62912464141846 7.17466306686401 7.74355983734131 8.10430717468262 8.43821144104004 8.57102680206299 8.63167953491211 9.15047168731689 9.7951717376709 10.0323457717896 10.6922044754028 11.2302894592285 11.5013265609741 11.4267644882202 11.3377485275269 11.1693887710571 11.6830673217773 11.8311033248901 12.0918064117432 11.6424579620361 11.7051658630371 12.2019948959351 12.6052751541138 13.7983522415161 15.0064191818237 16.0015239715576 18.5000801086426 16.380163192749 14.3034029006958 14.0510025024414 16.6834869384766 18.88037109375 21.0658531188965 19.1335258483887 13.8082981109619 12.44775390625 16.6288967132568 14.4919748306274 14.6718482971191 14.022274017334 11.6918144226074 12.001012802124 12.6164951324463 10.0805082321167 8.926025390625 8.50385475158691 8.14606857299805 10.0205917358398 16.0752029418945 17.0554962158203 17.0804996490479 17.3805294036865 13.7723255157471 11.1508350372314 10.0980224609375 9.6811056137085 4.98787927627563 5.05443811416626 3.64433813095093 2.96939992904663 1.54868233203888 4.93261623382568 9.13477611541748 7.5393853187561 3.85654759407043 1.8958740234375 2.26939249038696 2.56455206871033 4.26827669143677 5.08805131912231 0.821041822433472 2.77710914611816 6.24593687057495 3.99885392189026 -0.835423171520233 -1.42350089550018 -0.791404664516449 -0.523095965385437 -0.167441606521606 0.587622582912445 -0.538895905017853 -1.21466279029846 -0.894108474254608 -0.640713334083557 -0.234137579798698 -1.48326289653778 -1.64794397354126 -1.66219747066498 -0.966817140579224 -1.66537344455719 -1.48928725719452 -1.32185697555542 -1.39003169536591 -1.4557238817215 -1.3138073682785 -0.442614763975143 0.806428134441376 0.458161681890488 -0.0996380895376205 0.115825086832047 0.215098783373833 0.292010307312012 0.157722249627113 0.369850903749466 1.28661835193634 1.34937512874603 1.19958829879761 1.453822016716 1.98520028591156 2.37942814826965 1.9226416349411 1.38094258308411 0.819656550884247 0.839054346084595 0.887102663516998 1.24044895172119 1.76029872894287 2.35091376304626 2.97491264343262 3.11070966720581 3.00845146179199 2.99569702148438 2.93996477127075 2.98847818374634 2.72349858283997 2.68857574462891 2.64473962783813 2.49074602127075 2.43132901191711 2.21890783309937 1.99449133872986 2.56539726257324 2.47407698631287 1.67239630222321 1.55130743980408 1.49642527103424 1.38309013843536 1.28411030769348 1.3266578912735 1.59687042236328 1.7229129076004 1.86565399169922 1.99894154071808 2.17289447784424 2.32485246658325 2.33641672134399 2.75203633308411
4.24117374420166 4.16306495666504 3.71456384658813 4.19854736328125 4.12591981887817 3.59184384346008 4.93987035751343 4.00460433959961 2.84872603416443 1.99410831928253 1.74404776096344 1.53581964969635 1.3193382024765 1.07762622833252 0.86288970708847 0.632326662540436 1.56915771961212 0.873691082000732 1.20858657360077 1.65607810020447 2.49606966972351 3.14502882957458 3.48360538482666 4.96626853942871 5.72162389755249 6.09291791915894 6.97589874267578 7.49209356307983 8.07527732849121 8.61503028869629 8.95663452148438 9.30005264282227 9.4512414932251 10.04052734375 10.7190971374512 10.9241495132446 11.6332483291626 12.147087097168 12.4776430130005 12.2506637573242 12.0004463195801 12.8431386947632 13.469672203064 13.9002342224121 14.1373558044434 13.6529712677002 13.8089418411255 13.9406003952026 13.5138282775879 13.8948984146118 15.4807500839233 16.6533241271973 20.0278606414795 16.7277984619141 13.7294836044312 12.4452142715454 10.4104156494141 12.7891340255737 18.7794361114502 25.6037139892578 17.3577575683594 15.3909111022949 14.0758228302002 14.871789932251 16.1226806640625 16.1770191192627 14.7951421737671 14.7698812484741 13.0294733047485 11.7038145065308 9.20694637298584 9.40841388702393 10.4047203063965 14.9829921722412 20.3747024536133 20.749095916748 19.4784030914307 20.8171806335449 15.3028497695923 13.6253824234009 8.35784435272217 7.19201564788818 4.68265104293823 1.09292995929718 3.29234766960144 1.4215897321701 0.0902130603790283 1.09125030040741 3.1130838394165 3.31360030174255 4.10560941696167 2.29490113258362 2.73019933700562 2.41199135780334 2.40371704101562 2.95888209342957 2.35773372650146 4.74338245391846 0.979217171669006 0.622233092784882 0.0539858005940914 -1.74481964111328 -1.79837691783905 -1.79976367950439 0.568817675113678 0.792800188064575 -0.422897160053253 -2.2146532535553 -1.30253851413727 -0.428709298372269 -1.49749207496643 -1.43938803672791 -1.59499037265778 -1.54170572757721 -1.5679327249527 -1.63195729255676 -1.36126255989075 -1.17209827899933 -1.16394436359406 -1.3718888759613 -1.25288212299347 -0.704740881919861 0.345931231975555 0.37642914056778 0.0247568525373936 0.228197142481804 0.397749841213226 0.557399988174438 0.419553905725479 0.750337183475494 1.59810590744019 1.64202511310577 1.51961374282837 1.88580799102783 2.44311046600342 2.76118755340576 2.23596858978271 1.55190026760101 1.01805078983307 0.94000506401062 1.54485142230988 2.35263013839722 2.91326212882996 3.09176349639893 3.56829261779785 3.69467282295227 3.34150171279907 3.04807281494141 3.10152959823608 3.15441679954529 2.76344799995422 2.82446551322937 2.73928713798523 2.53232765197754 2.55283379554749 2.29179692268372 2.0064480304718 1.8668555021286 2.3992714881897 2.72150301933289 1.77340543270111 1.72922742366791 1.76054084300995 1.71460485458374 1.72204780578613 1.82364976406097 1.91070640087128 2.07149362564087 2.21872758865356 2.34346413612366 2.46901297569275 2.65338921546936 3.46860694885254
4.45148611068726 4.21236944198608 3.75151634216309 4.37303256988525 4.2498459815979 4.13361549377441 3.13388133049011 3.8077335357666 3.48964810371399 2.04870676994324 1.90752732753754 1.75092363357544 1.52345108985901 1.21100759506226 0.967176854610443 0.746940493583679 0.509156167507172 0.395867496728897 1.10302126407623 1.60475671291351 3.21054005622864 3.33605074882507 3.37239933013916 3.8140983581543 4.80618381500244 6.27218055725098 7.28352308273315 7.91340970993042 8.40463352203369 9.04162693023682 9.56318473815918 9.96048259735107 10.2241849899292 10.9660806655884 11.599889755249 11.728289604187 12.5917148590088 13.1073131561279 13.7114009857178 13.3704538345337 13.2116250991821 14.4104709625244 15.7969846725464 15.716625213623 16.0996017456055 15.7894458770752 15.6708946228027 15.2472467422485 14.6247587203979 14.0480966567993 14.1491479873657 17.945369720459 12.9857149124146 12.2330570220947 12.5776462554932 12.7927713394165 10.5381851196289 7.37068223953247 6.79323196411133 15.1195306777954 12.4987134933472 11.5579566955566 15.8919525146484 15.9972066879272 16.9117298126221 15.874773979187 18.4943752288818 18.950834274292 15.8892478942871 12.6811113357544 10.0650968551636 13.0074262619019 12.942723274231 11.0530099868774 17.6605281829834 11.3435173034668 9.25040245056152 7.39399528503418 8.91108703613281 5.75827312469482 8.16226577758789 7.13066530227661 5.13477849960327 1.34278786182404 -0.684871435165405 -0.728222846984863 -1.67515921592712 -1.79265701770782 0.786826252937317 3.47749662399292 4.45760822296143 2.62685585021973 2.99290752410889 2.55912590026855 2.3540244102478 2.97136163711548 1.88557136058807 -1.47488141059875 -1.23547160625458 -2.1610894203186 -2.26087379455566 -2.19256901741028 -2.13140940666199 -1.0118693113327 1.58709383010864 1.16528809070587 -0.0966482535004616 -1.96086657047272 -1.86916625499725 -1.51652109622955 -1.46322429180145 -1.34946715831757 -1.39021217823029 -1.37868905067444 -1.49963295459747 -1.57693457603455 -1.21493482589722 -0.940707385540009 -0.874256491661072 -1.11250782012939 -1.13974297046661 -0.670636475086212 -0.0914303287863731 0.072344571352005 0.133616060018539 0.337784051895142 0.536142945289612 0.772890627384186 0.645701885223389 1.11981773376465 1.94634914398193 1.94715678691864 1.8425509929657 2.35077214241028 2.86360359191895 3.21154379844666 2.64916586875916 1.91944801807404 1.49405372142792 1.37242567539215 2.18374609947205 3.28107857704163 3.99172806739807 4.1418628692627 4.2935733795166 4.22960376739502 3.647047996521 3.23910522460938 3.28900980949402 3.335533618927 2.93488717079163 2.92937922477722 2.86408734321594 2.91777515411377 2.87619590759277 2.43655681610107 2.0906093120575 1.90342259407043 1.91051650047302 1.99448347091675 1.89235281944275 1.89014077186584 1.97544598579407 2.01537680625916 2.00557470321655 2.01742601394653 2.10468506813049 2.24378061294556 2.39260792732239 2.51981139183044 2.68446826934814 3.02265548706055 4.13426494598389
4.61116552352905 4.31185436248779 3.84441208839417 4.63617515563965 4.51251792907715 3.65503978729248 2.76393818855286 2.53368616104126 3.62371230125427 2.58911824226379 2.01925039291382 1.92822647094727 1.68916797637939 1.3621369600296 1.08033335208893 0.852755308151245 0.662633895874023 0.510272562503815 0.462592780590057 1.0487539768219 2.1317286491394 1.60025632381439 2.7892382144928 3.79956865310669 4.89141988754272 6.37941074371338 7.57043743133545 8.34207057952881 8.89004802703857 9.44354915618896 10.0522546768188 10.4108037948608 10.6690378189087 11.5540676116943 12.2390031814575 12.3314380645752 14.3431329727173 15.6387166976929 14.9043369293213 14.4549169540405 14.6562423706055 17.294319152832 17.8100337982178 17.6635780334473 17.279821395874 18.1053829193115 16.8311042785645 15.1323881149292 13.3066310882568 11.5069150924683 10.7433347702026 9.95543956756592 6.7650260925293 10.5959529876709 8.43460941314697 7.77851581573486 9.41031074523926 8.00112533569336 5.93987798690796 4.16739082336426 6.84658241271973 10.016884803772 10.3627700805664 14.1493186950684 18.44020652771 17.7763843536377 24.0872631072998 25.6068458557129 20.9426574707031 13.2016820907593 10.390531539917 13.599910736084 14.9040307998657 6.69870376586914 5.31642913818359 6.59620475769043 4.43079662322998 3.49179267883301 2.71485686302185 3.25829458236694 8.17084503173828 1.86043584346771 -1.07199358940125 -1.06458556652069 -1.21134746074677 -1.47895789146423 -1.69577383995056 -1.13717532157898 1.50243604183197 3.88509249687195 4.72449111938477 2.81221675872803 2.38646221160889 2.12518978118896 1.72309219837189 1.74626636505127 -0.702298700809479 -1.41954493522644 -1.83204162120819 -2.15553855895996 -2.23625254631042 -2.1598117351532 -1.48927414417267 0.0450519174337387 3.09954524040222 3.24224066734314 -0.597962498664856 -1.85889315605164 -1.73007011413574 -1.4637314081192 -1.4181854724884 -0.513643801212311 -0.627259492874146 -1.11727726459503 -1.30789065361023 -0.99031400680542 -0.732870995998383 -0.540194749832153 -0.550747632980347 -0.809527814388275 -0.879268229007721 -0.583772301673889 -0.079595185816288 0.166063785552979 0.252701044082642 0.54084300994873 0.727286100387573 0.849531650543213 0.800151586532593 1.40197265148163 2.22130751609802 2.20101881027222 2.48033666610718 2.84489297866821 3.31654787063599 3.64244604110718 3.08775663375854 2.49171614646912 2.07666754722595 2.40267276763916 3.07171034812927 3.96014904975891 4.7862229347229 5.10166215896606 5.01512050628662 4.62216663360596 3.87652730941772 3.45124459266663 3.75137090682983 3.74680066108704 3.26369118690491 3.39924359321594 3.46480965614319 3.13435101509094 3.19057822227478 2.61838912963867 2.12519097328186 1.91364884376526 1.92670512199402 1.95143043994904 1.93888711929321 1.97016608715057 2.09776616096497 2.21386885643005 2.22965097427368 2.22498106956482 2.25391530990601 2.34378147125244 2.51088404655457 2.73972177505493 3.08810782432556 3.31497049331665 4.45938777923584
4.77200937271118 4.47327852249146 4.04568481445312 5.04985475540161 4.75484752655029 3.83575344085693 2.86807823181152 2.45611953735352 2.19377779960632 2.98573446273804 2.34055399894714 2.05050826072693 1.85244023799896 1.52901566028595 1.23294746875763 1.00375771522522 0.821435868740082 0.649742007255554 0.526519417762756 1.22708809375763 0.809068977832794 1.60509490966797 2.86416220664978 3.96603345870972 5.16044473648071 6.63632249832153 7.78469896316528 8.72540187835693 9.31836700439453 9.94812202453613 10.4056816101074 10.8576068878174 11.0716743469238 12.1313829421997 13.0121269226074 14.0232248306274 16.2578716278076 17.7594413757324 16.4011039733887 15.4159660339355 15.382098197937 15.4204425811768 14.8212337493896 15.5709924697876 15.173394203186 14.49840259552 14.6123523712158 14.1634035110474 12.069920539856 9.1315803527832 8.81885528564453 4.25132274627686 5.20434141159058 5.13578081130981 6.53644037246704 7.51330280303955 8.0888614654541 8.42850589752197 5.25900936126709 4.72175025939941 6.88495349884033 10.2726831436157 11.5185098648071 15.6889009475708 22.7491683959961 19.3129177093506 23.766731262207 28.9029293060303 29.8452968597412 14.1920518875122 10.5849275588989 8.42588520050049 7.77499389648438 6.89819574356079 5.33241701126099 4.75243806838989 4.26763153076172 3.6382908821106 2.82514786720276 3.84265732765198 5.04904365539551 1.41367828845978 0.159054204821587 -1.03159070014954 -1.11842405796051 -0.941108882427216 -1.34102284908295 0.233181372284889 3.16272211074829 4.17959499359131 4.41234254837036 3.39860033988953 2.689772605896 2.26406669616699 1.78083527088165 0.127259880304337 -0.664221823215485 -1.29536092281342 -1.68764424324036 -2.00205945968628 -2.15620827674866 -1.90868663787842 -1.75729358196259 -1.3813157081604 -0.474823892116547 -0.170617625117302 -0.301522761583328 -1.97445201873779 -1.66739296913147 -1.41971611976624 -1.40796947479248 -1.44102001190186 -1.32989168167114 -1.26489615440369 -1.37457537651062 -0.809064388275146 -0.40158799290657 -0.284531146287918 -0.342365622520447 -0.522410213947296 -0.506220400333405 -0.303054094314575 0.0581279098987579 0.227150201797485 0.393258213996887 0.734636008739471 0.87855851650238 0.838807582855225 1.17276358604431 1.71960961818695 2.40684533119202 2.39290642738342 3.1319375038147 3.71994853019714 3.88821244239807 3.99095249176025 3.48932456970215 3.14896774291992 3.08876323699951 4.47973823547363 4.35117530822754 4.90192222595215 5.84578800201416 6.12212085723877 5.66036510467529 4.927321434021 4.07698059082031 3.58264565467834 3.43429136276245 3.46230983734131 3.68309760093689 4.10828399658203 3.98270392417908 3.71254253387451 3.36654257774353 2.98327851295471 2.41938257217407 1.94799065589905 1.96238386631012 1.99611449241638 1.99891519546509 2.16645956039429 2.31498026847839 2.46983742713928 2.52509164810181 2.53924369812012 2.34642672538757 2.4215931892395 2.61125063896179 2.8366596698761 3.32278347015381 3.63204216957092 4.83085250854492
4.97617149353027 4.6505446434021 4.32629489898682 5.38252592086792 5.1717004776001 4.13885927200317 2.96479296684265 2.26548957824707 2.19973158836365 2.34606003761292 2.49664235115051 2.23671555519104 2.07572269439697 1.84499621391296 1.43890070915222 1.19426774978638 0.969266951084137 0.761274933815002 0.655565202236176 0.550985872745514 0.916978657245636 1.81185173988342 3.02703619003296 4.17775869369507 5.45793056488037 7.0865273475647 8.26809978485107 9.14683246612549 9.68836116790771 10.4565687179565 11.0619173049927 11.8037405014038 12.1952352523804 13.2169675827026 13.957667350769 16.505199432373 18.3261451721191 19.5914096832275 17.7403678894043 16.4450607299805 14.6652431488037 12.5208463668823 12.0081701278687 12.8782720565796 12.1063356399536 11.2965497970581 10.2269859313965 11.3106842041016 10.195574760437 9.71163272857666 6.25193023681641 3.90388703346252 3.6329460144043 5.42893075942993 7.35106897354126 9.79255676269531 10.0878534317017 10.1790599822998 7.14422225952148 5.58489370346069 8.14032649993896 11.1692304611206 13.4397020339966 18.0428657531738 18.2592391967773 16.5762825012207 8.47722434997559 8.00160980224609 9.26595115661621 17.9265251159668 10.8407583236694 8.52647304534912 7.73619318008423 6.96802377700806 5.7441554069519 4.96893310546875 4.61899566650391 4.10037612915039 2.8678023815155 1.15653598308563 2.33381342887878 1.7083340883255 1.21780323982239 -0.802508413791656 -0.758198916912079 -0.416875034570694 -0.594614088535309 3.29120397567749 6.35054445266724 8.15221309661865 3.52840566635132 3.42403101921082 3.45031428337097 2.53027772903442 1.84029412269592 -0.0432822480797768 -0.593321681022644 -1.12237048149109 -1.52829468250275 -1.8449832201004 -2.07397890090942 -2.04390001296997 -1.86826860904694 -1.68869864940643 -1.67223834991455 -1.72777354717255 0.348663181066513 -1.87413787841797 -1.66470968723297 -1.41373240947723 -1.37563323974609 -1.41587054729462 -1.25272583961487 -1.08228313922882 -1.11602425575256 -0.602714836597443 -0.217785105109215 0.084574393928051 0.197303742170334 -0.117398746311665 -0.115248046815395 -0.0309585258364677 0.221790477633476 0.317757785320282 0.459137380123138 0.867538571357727 0.966214716434479 0.961853802204132 1.61667549610138 2.30009150505066 2.54540395736694 2.66426467895508 3.46243929862976 4.09925985336304 4.26370191574097 4.28471040725708 3.74488711357117 3.61128306388855 4.89620733261108 5.80631160736084 7.02351903915405 6.98796510696411 6.9482307434082 6.80719375610352 6.04924869537354 5.23840761184692 4.30302906036377 3.6728720664978 3.51127791404724 3.51031017303467 4.47606563568115 4.17673254013062 4.60098123550415 4.32491207122803 3.44932079315186 3.37071824073792 3.03402376174927 2.38104033470154 2.03939819335938 2.09418749809265 2.27404975891113 2.4813072681427 2.60706424713135 2.73703455924988 2.84944534301758 2.8824770450592 2.66687393188477 2.55944037437439 2.68299627304077 3.06031513214111 3.57497477531433 3.9374258518219 5.30890512466431
5.38163137435913 5.57985830307007 5.52619171142578 5.83523082733154 5.5382137298584 4.34805297851562 3.07724285125732 2.28478193283081 2.2070095539093 2.57144331932068 2.50191187858582 2.36932873725891 2.25524044036865 2.073317527771 1.74702537059784 1.45045566558838 1.16608011722565 0.929169178009033 1.08723556995392 0.877665281295776 1.00483477115631 1.96382117271423 3.17269587516785 4.37836885452271 6.00076007843018 7.87735176086426 8.98708915710449 9.62636470794678 11.9991130828857 13.0445098876953 13.167896270752 13.5170698165894 14.790168762207 15.446831703186 15.1953096389771 17.1764125823975 19.6340045928955 21.4551639556885 19.3226013183594 16.676342010498 13.8614892959595 10.7707061767578 9.49521923065186 8.93644332885742 8.84833240509033 8.75179958343506 8.37672424316406 6.95136260986328 8.10741901397705 8.14447593688965 4.24309778213501 3.85519552230835 3.86217141151428 6.54160451889038 9.97274589538574 12.1540470123291 11.8027257919312 15.0236482620239 9.17778205871582 6.40596866607666 6.32294225692749 11.6187305450439 11.978343963623 7.35712909698486 7.41326284408569 10.4724712371826 9.49035549163818 8.52601337432861 9.39156341552734 12.7388229370117 11.6099739074707 9.57550716400146 8.00367164611816 7.46785163879395 6.51835012435913 5.57298898696899 4.74734306335449 3.96887874603271 2.94706583023071 0.989784717559814 -0.39598074555397 1.84067618846893 2.09836101531982 -0.356831789016724 -0.303585410118103 -0.197448387742043 -0.743397057056427 1.98646092414856 6.78038215637207 7.89035320281982 4.22116231918335 3.54985404014587 2.02711892127991 1.17702209949493 0.968100845813751 0.251367568969727 -0.481802046298981 -1.02833783626556 -1.4758220911026 -1.74530649185181 -2.00613594055176 -1.94624280929565 -1.79110443592072 -1.24519324302673 -1.81515491008759 -1.30745375156403 -0.504847168922424 -1.69580137729645 -1.62892317771912 -1.38026201725006 -1.25237619876862 -1.24493610858917 -1.02872049808502 -0.848600447177887 -0.927121460437775 -0.380270063877106 0.0727882534265518 0.494683027267456 0.580945611000061 -0.02742575481534 -0.0438613593578339 0.123847462236881 0.353550106287003 0.473073571920395 0.582850158214569 0.950160026550293 1.15441966056824 1.20303928852081 1.76768159866333 2.67721390724182 2.6585910320282 2.94994235038757 3.80531287193298 4.47046995162964 4.72767066955566 4.63035678863525 4.06109094619751 4.00904273986816 5.72963047027588 5.83508634567261 7.14051055908203 7.89416599273682 7.43106126785278 7.33963537216187 6.47211742401123 5.52368354797363 4.48884153366089 3.8362250328064 3.77207899093628 3.68038606643677 2.94327592849731 3.41089558601379 5.14748859405518 5.39826059341431 4.00395154953003 3.30678391456604 3.41518902778625 3.04849576950073 2.61644220352173 2.47587513923645 2.63827157020569 2.80008506774902 2.86003732681274 3.01229763031006 3.1786744594574 2.96978664398193 2.92165660858154 2.76045632362366 2.80882930755615 3.3536376953125 3.86771154403687 4.37228298187256 5.82120275497437
5.77716827392578 6.28499937057495 7.48669481277466 6.57905101776123 5.9315824508667 4.62406921386719 3.33380913734436 2.31955862045288 2.23886156082153 3.22027659416199 2.69631505012512 2.48282742500305 2.37767457962036 2.19228196144104 1.91449928283691 1.62876439094543 1.58169531822205 1.57699286937714 0.727703332901001 0.582304298877716 1.23750436306 2.12806367874146 3.54840064048767 4.99734449386597 6.68455934524536 8.73357391357422 9.76639556884766 11.5447587966919 14.0102701187134 14.9112854003906 15.2735900878906 14.2332715988159 15.2973518371582 16.2579727172852 15.7468528747559 17.0786647796631 15.0290765762329 13.2359495162964 13.7243013381958 12.5168628692627 11.1089611053467 9.7411994934082 8.02522277832031 6.87707710266113 6.3636999130249 7.13106870651245 8.55118370056152 6.47488117218018 6.03503036499023 5.15618801116943 4.20787477493286 3.76911664009094 4.30345964431763 7.42607355117798 7.13499641418457 4.76145315170288 3.71790909767151 5.45417356491089 9.85548877716064 7.14562129974365 6.32378482818604 6.66473150253296 6.88995122909546 7.036865234375 7.86178398132324 8.54466533660889 8.80750465393066 9.00808143615723 9.88394260406494 11.2565450668335 11.8106880187988 10.5133152008057 8.98235321044922 7.94706201553345 6.91898822784424 6.20166969299316 5.24781131744385 4.39017248153687 3.11363482475281 0.898528635501862 -0.746923744678497 1.8550865650177 0.588768899440765 0.455564022064209 -1.15540206432343 -0.458733022212982 -0.718826055526733 0.928988218307495 1.82847630977631 1.35654985904694 1.56768345832825 0.865810811519623 1.16459631919861 1.20096755027771 1.24027788639069 0.626221418380737 -0.14135730266571 -0.934431135654449 -1.45740687847137 -0.708391129970551 -1.72876358032227 -1.6335746049881 -1.50154030323029 -1.55611658096313 -1.62336850166321 -1.52426707744598 -1.45268225669861 -1.37300360202789 -1.40098679065704 -1.13951849937439 -0.948476672172546 -0.907820641994476 -0.798077821731567 -0.68914407491684 -0.684526145458221 0.0345853641629219 0.471603035926819 0.860921323299408 1.11326086521149 0.453738808631897 0.286488860845566 0.547730803489685 0.68931770324707 0.730419933795929 0.770796597003937 1.01043736934662 1.24065542221069 1.37035477161407 1.88901460170746 2.8240978717804 2.80178260803223 3.23382329940796 4.19454145431519 4.90026092529297 5.06650829315186 5.07167387008667 5.70188093185425 5.54903221130371 4.55202913284302 6.15815401077271 7.89868974685669 8.46486949920654 8.50081634521484 7.94843864440918 6.95652914047241 5.71891450881958 4.62888479232788 4.27017879486084 3.96051073074341 3.84297394752502 2.95615172386169 2.88385224342346 3.06080722808838 4.95089340209961 4.89578676223755 3.34935617446899 3.10822248458862 3.40800261497498 3.15283417701721 2.95723819732666 3.01139855384827 3.0863254070282 3.1228129863739 3.29066514968872 3.47920155525208 3.27461981773376 3.07207775115967 2.88002967834473 3.03862261772156 3.59094333648682 4.21014404296875 5.18347549438477 6.47815895080566
5.94996213912964 7.25399446487427 8.59455299377441 7.54198980331421 6.05798864364624 5.05152654647827 3.56946444511414 2.61294746398926 2.59552550315857 2.17395949363708 2.41653084754944 2.55159330368042 2.49035263061523 2.25230884552002 1.98065268993378 1.6974710226059 2.59254002571106 2.22786092758179 0.840463280677795 0.683355331420898 1.86575770378113 2.66637563705444 3.85734963417053 5.48494863510132 9.64394664764404 12.0627756118774 12.9905920028687 13.3692283630371 16.6173706054688 15.4821071624756 13.9461460113525 13.6473274230957 16.2785625457764 18.1166744232178 16.6413612365723 18.8628063201904 13.9907217025757 11.002236366272 11.5677375793457 11.8203163146973 11.5455522537231 10.6867837905884 8.50522518157959 7.10383129119873 6.61221885681152 6.34621286392212 5.51741170883179 5.64229106903076 5.87541103363037 4.35080862045288 3.99623036384583 3.91212916374207 3.48728013038635 2.4780580997467 2.3537745475769 2.66169142723083 3.06144952774048 3.22478461265564 3.6537492275238 4.54281949996948 6.59538316726685 7.24954080581665 7.64127683639526 8.15218448638916 8.81066513061523 9.04155921936035 9.00236701965332 9.66022396087646 10.7890357971191 12.3869428634644 12.1789302825928 11.2663898468018 9.94906234741211 8.58658313751221 7.44495105743408 6.64827680587769 5.43390083312988 4.55326795578003 3.16856932640076 0.864121079444885 -0.732456982135773 -0.996117830276489 -0.643950462341309 -0.265200704336166 -1.08450448513031 -0.82781594991684 -1.5095419883728 -1.86988663673401 -2.07050347328186 -1.87803828716278 2.05244040489197 1.9458281993866 1.94083416461945 1.21832203865051 0.505639433860779 0.265364617109299 -0.106796711683273 -0.882053971290588 -1.47657227516174 -1.5237067937851 -1.41041123867035 -1.27269470691681 -1.23724663257599 -1.29225873947144 -1.29875707626343 -1.17782080173492 -1.14143133163452 -1.17870485782623 -1.15103399753571 -0.837742209434509 -0.610430181026459 -0.606107354164124 -0.574460566043854 -0.509180009365082 -0.395073056221008 0.466368824243546 0.861341059207916 1.48796391487122 1.75498223304749 1.18860745429993 0.86484158039093 1.00894999504089 1.23861014842987 1.13231003284454 1.00693786144257 1.14443874359131 1.31963288784027 1.43036961555481 2.01944899559021 2.98648881912231 2.97339820861816 3.58275008201599 4.54528474807739 5.33515357971191 5.55400133132935 6.36920022964478 6.99686288833618 6.52524423599243 5.33539485931396 4.96222829818726 8.03071403503418 9.49925899505615 9.35536575317383 8.49391174316406 7.49474716186523 6.17567110061646 4.65303039550781 3.89530849456787 4.01763343811035 4.09509468078613 3.22943949699402 3.0440571308136 2.73310327529907 2.78305101394653 3.64069199562073 3.81340479850769 2.78562664985657 3.06945753097534 3.47446441650391 3.38879084587097 3.34523797035217 3.45206665992737 3.41433811187744 3.59207701683044 3.7951831817627 3.64316916465759 3.42596030235291 2.99348068237305 3.20723128318787 3.70575881004333 6.67266607284546 7.6996431350708 8.20045375823975
5.90088367462158 8.32714080810547 9.66990184783936 8.87349128723145 6.76461267471313 4.54988431930542 3.26207375526428 2.63496255874634 2.22531223297119 2.19115209579468 2.42340350151062 2.56461334228516 2.54067397117615 2.33054423332214 2.07209658622742 1.83338487148285 1.53729665279388 3.24380660057068 1.23638653755188 2.1613233089447 2.82140636444092 3.67365646362305 5.61511850357056 8.56967067718506 11.4992685317993 14.3811912536621 14.997200012207 14.9387617111206 17.8829612731934 16.8543548583984 15.0426321029663 14.0637540817261 18.903751373291 21.7191696166992 17.2464618682861 8.03277683258057 7.14987087249756 6.23330211639404 6.82146215438843 7.41366195678711 7.62926149368286 8.5802755355835 8.87476539611816 7.52099180221558 6.22898197174072 5.80192184448242 4.72948932647705 5.97909593582153 5.9563946723938 4.39209508895874 4.16482925415039 4.66932582855225 3.98311185836792 2.51095914840698 2.42073392868042 2.77965950965881 3.18438744544983 3.45480346679688 3.77146458625793 4.9946174621582 8.75997924804688 9.23176383972168 9.71998023986816 10.6033611297607 10.0819482803345 9.96494960784912 10.1314105987549 10.9598989486694 12.208441734314 13.9657545089722 13.5382347106934 12.0982131958008 10.7780818939209 9.42293357849121 7.95540952682495 7.10483264923096 6.00320243835449 4.6678729057312 3.18132853507996 1.13163018226624 -0.582639336585999 -0.957512497901917 -1.00000739097595 -1.12274098396301 -1.43677878379822 -1.38566970825195 -1.47625064849854 -1.83386015892029 -2.02656769752502 -1.82028615474701 1.02381837368011 2.76746010780334 2.5904541015625 0.789547204971313 0.278041154146194 -0.312270224094391 -0.460494607686996 -0.774837076663971 -1.11958682537079 -1.27592718601227 -1.15068590641022 -0.999432146549225 -0.92345118522644 -0.895745575428009 -0.777493000030518 -0.817832350730896 -0.836986005306244 -0.97659170627594 -0.856532454490662 -0.302268207073212 -0.107518739998341 -0.322060495615005 -0.257968991994858 0.2469402551651 0.569915473461151 1.14318430423737 1.83218944072723 2.483558177948 2.41479969024658 1.84721875190735 1.60004770755768 1.8123916387558 2.0318820476532 1.90062117576599 1.61052358150482 1.57005453109741 1.51372826099396 1.64502286911011 2.20237565040588 3.14977478981018 3.12594032287598 3.93180871009827 5.08940649032593 5.91134405136108 5.93436861038208 7.58695888519287 7.45411825180054 7.88961601257324 7.11710739135742 4.92719221115112 6.01822423934937 7.97279167175293 8.78479671478271 8.76239490509033 8.59437942504883 6.54870986938477 4.75016164779663 3.95229363441467 4.19315385818481 4.41080856323242 3.41099786758423 3.26743030548096 2.74053406715393 1.99450182914734 2.87955784797668 4.05192136764526 2.7929904460907 2.52559566497803 3.32699632644653 3.7836594581604 3.66678881645203 3.87503242492676 3.75560164451599 3.90624666213989 4.09710645675659 3.88999032974243 3.45251274108887 3.63663268089294 4.07078123092651 5.27777290344238 9.54740905761719 10.2809715270996 12.8098526000977
6.45674800872803 5.3161735534668 10.5292329788208 9.97449493408203 7.77148199081421 4.68328237533569 3.46320366859436 2.44930171966553 2.24006295204163 2.34697031974792 2.45801663398743 2.58989286422729 2.56512045860291 2.37367033958435 2.2299530506134 2.04667782783508 1.73997962474823 1.27827632427216 1.65996468067169 3.04464864730835 3.92356371879578 5.27600193023682 8.03609848022461 10.4291305541992 15.0438432693481 18.0855484008789 16.4460906982422 15.2746076583862 12.295485496521 11.1465873718262 13.2128553390503 12.3629417419434 7.8211555480957 5.58342361450195 6.30416393280029 4.6526346206665 2.14790725708008 1.41899585723877 1.48209357261658 2.57845759391785 2.84434723854065 3.12144660949707 4.62511253356934 4.94495487213135 5.38301467895508 4.48260974884033 4.75097990036011 3.7855920791626 1.70952606201172 2.80785369873047 3.3487663269043 2.89890623092651 2.57575821876526 2.54807376861572 2.56758069992065 2.98817753791809 3.46623301506042 3.73353672027588 4.07960033416748 7.70298957824707 11.4790964126587 12.0636940002441 12.6708431243896 14.4541034698486 13.8001050949097 12.5955505371094 13.1027460098267 13.4215745925903 16.1388854980469 14.1522073745728 16.0759506225586 13.6963195800781 11.8108949661255 10.2972297668457 8.49245166778564 7.59024953842163 6.58455896377563 5.32370376586914 3.43903970718384 1.43880355358124 -0.272831201553345 -0.815697610378265 -0.936838865280151 -1.0777930021286 -1.37374639511108 -1.56716787815094 -1.10013997554779 -1.76265299320221 -1.90365648269653 -1.67954313755035 -1.2785816192627 -0.988123059272766 -0.714838027954102 -0.74958461523056 -0.403780430555344 -0.0243154726922512 -0.407618433237076 -0.675600945949554 -0.902553737163544 -1.06778514385223 -0.978922247886658 -0.833300650119781 -0.707998812198639 -0.611535370349884 -0.523608028888702 -0.59758335351944 -0.583016097545624 -0.728795409202576 -0.449520885944366 0.25395005941391 0.407037258148193 0.199359014630318 0.417023569345474 1.8687664270401 2.35038447380066 2.77132678031921 3.73922491073608 3.77087140083313 4.01449298858643 3.405592918396 3.25936460494995 3.35560369491577 3.0673520565033 2.54818725585938 2.01688694953918 1.88306522369385 1.79413628578186 1.88497221469879 2.31106281280518 3.30798029899597 3.58761668205261 4.47046041488647 5.67263841629028 6.31478309631348 5.98634052276611 6.98379945755005 7.60392379760742 8.2967529296875 7.70871782302856 3.89079523086548 4.59035396575928 7.34901332855225 10.2081451416016 8.6070671081543 7.45393037796021 7.46330451965332 4.65449285507202 4.72032451629639 5.00997018814087 3.98465490341187 4.01068735122681 3.39634418487549 2.78743028640747 1.99787616729736 2.2819881439209 2.43109822273254 3.05004620552063 2.74062037467957 3.03790807723999 3.85782694816589 4.03058481216431 4.36460638046265 4.12400102615356 4.16651296615601 4.5387978553772 4.35946702957153 5.34686040878296 6.69217824935913 6.65719509124756 7.83746480941772 11.4742183685303 12.6101865768433 14.1620807647705
7.17336463928223 3.92148017883301 1.73247671127319 7.37286233901978 8.60884284973145 5.44369554519653 3.3875367641449 2.67130327224731 2.26070189476013 2.45942950248718 2.47832083702087 2.61309719085693 2.5869026184082 2.38589572906494 2.24991321563721 2.09976005554199 1.83064639568329 1.42553198337555 1.83064615726471 3.77885961532593 4.16395950317383 5.97727203369141 9.52779102325439 13.6508102416992 22.8394470214844 22.9910583496094 19.4440841674805 12.5786352157593 8.10586643218994 8.56288528442383 7.06415939331055 5.15935897827148 2.34194159507751 1.10176491737366 0.866056680679321 0.11583985388279 -0.855048894882202 -0.679585933685303 -0.560792446136475 -0.48473709821701 -0.0711377412080765 0.402825176715851 0.693203926086426 0.783687651157379 0.833187460899353 1.42306411266327 1.23890924453735 1.38211011886597 1.60421919822693 1.90605926513672 2.09073710441589 2.14966106414795 2.51927852630615 2.71580910682678 2.9305682182312 3.31013822555542 3.87637519836426 4.19759559631348 7.50200605392456 11.0287637710571 16.6074466705322 16.7287502288818 17.8904590606689 18.6606292724609 17.3141670227051 15.4730358123779 14.2169961929321 13.5622730255127 14.1629667282104 12.9837045669556 15.3685884475708 15.8389472961426 13.0821485519409 11.4056758880615 9.03001880645752 8.04562664031982 7.09128952026367 5.97913217544556 4.00732040405273 1.77478206157684 0.0106200966984034 -0.478772670030594 -0.789374947547913 -1.01077950000763 -1.31535494327545 -1.55330955982208 -0.0341509431600571 -1.7818318605423 -1.83759677410126 -1.59983050823212 -1.21801197528839 -0.980410397052765 -0.6313636302948 -0.724061667919159 -0.370300382375717 -0.310103952884674 -0.342969566583633 -0.591897010803223 -0.758136510848999 -0.987128734588623 -0.869384050369263 -0.706650733947754 -0.500660836696625 -0.353701442480087 -0.225062817335129 -0.347497969865799 -0.322168081998825 -0.417860597372055 0.33801344037056 0.627725601196289 0.85022234916687 0.998954892158508 2.33868885040283 4.05649709701538 4.51093292236328 5.14107131958008 5.48733901977539 5.52599430084229 5.70227670669556 5.11731433868408 5.17045116424561 4.98872804641724 4.26776647567749 3.27049875259399 2.43688130378723 2.08650922775269 1.94581437110901 2.06321263313293 3.41700720787048 4.12905263900757 4.69225835800171 5.48262691497803 6.24154663085938 6.60523509979248 6.09269571304321 5.25814771652222 4.70984315872192 3.95951128005981 4.88398838043213 3.86591100692749 4.75811576843262 6.52650308609009 6.74524974822998 6.98886013031006 6.22545862197876 4.52753782272339 5.04635953903198 5.50577211380005 5.89310932159424 4.36250686645508 4.38399219512939 3.73277688026428 3.13874340057373 2.05856609344482 1.9144583940506 1.89719843864441 3.07154083251953 3.18177914619446 3.63942217826843 4.03654527664185 4.44682455062866 5.09080791473389 4.55438947677612 4.67745208740234 5.08434581756592 5.72481822967529 9.02685642242432 8.55846405029297 4.46735668182373 8.12963008880615 12.9647006988525 11.116602897644 9.24625968933105
8.40377140045166 4.91871738433838 1.91415154933929 2.00597763061523 4.5702657699585 4.68043947219849 2.67659187316895 2.31101965904236 2.30574703216553 2.51379036903381 2.60196256637573 2.62830638885498 2.59758234024048 2.4028012752533 2.26511478424072 2.10816049575806 1.84955620765686 1.55052196979523 2.35762786865234 4.42229604721069 3.96946287155151 6.31555414199829 11.321533203125 17.0206184387207 11.515362739563 9.23299503326416 9.50771045684814 10.7244253158569 7.00608587265015 2.55040073394775 -0.220559373497963 -0.219644039869308 -0.0599013417959213 -0.205628678202629 -0.737266600131989 -0.935120224952698 -1.07908320426941 -0.568822145462036 -0.428707718849182 -0.183586284518242 0.179535567760468 0.572345733642578 0.77238804101944 0.808182716369629 0.846313178539276 0.994735836982727 1.27954864501953 1.44486403465271 1.76394975185394 2.18622303009033 2.42516946792603 2.71288800239563 3.11258435249329 3.1284031867981 3.31216883659363 3.57340407371521 4.16577434539795 4.64280891418457 9.77701377868652 16.2963466644287 22.1023654937744 17.0170707702637 13.9192380905151 9.4882287979126 8.78763866424561 9.35520648956299 9.97507858276367 13.8749828338623 16.3985824584961 13.2724123001099 13.9699773788452 16.0248489379883 14.7935943603516 12.6866359710693 9.7446928024292 8.51876926422119 7.50221109390259 6.52566194534302 4.70403337478638 2.318274974823 0.221247836947441 -0.227442026138306 -0.525607645511627 -0.841698229312897 -1.1822167634964 -1.51450431346893 -1.7514979839325 -1.8128262758255 -1.58970856666565 -1.36089289188385 -0.980794906616211 -0.736690402030945 -0.535446584224701 -0.718602299690247 -0.407303512096405 -0.305339694023132 -0.249013468623161 -0.540588915348053 -0.732850551605225 -0.92316734790802 -0.853468000888824 -0.688502311706543 -0.371196031570435 -0.162023216485977 0.0455868430435658 0.0174629278481007 -0.0826935917139053 0.290646016597748 0.989651501178741 1.14856135845184 1.36752474308014 2.02550888061523 4.28037214279175 5.95320796966553 6.40125417709351 7.25772047042847 7.56280660629272 8.25393962860107 7.84895849227905 6.19032049179077 6.15536785125732 5.76927757263184 4.83640813827515 3.59915781021118 2.66098642349243 2.30083131790161 2.18190813064575 3.52906727790833 4.85733270645142 5.21553611755371 5.78733253479004 6.69171667098999 7.05813217163086 7.15319299697876 6.92235374450684 5.2616081237793 3.61144590377808 2.67364740371704 1.48403704166412 1.13162612915039 1.06997501850128 1.0690199136734 2.86083555221558 5.91825771331787 6.72183465957642 4.69605731964111 4.55158758163452 6.6490683555603 7.80159330368042 5.31951856613159 5.27062463760376 4.5519814491272 3.76249718666077 2.46605944633484 1.94599139690399 1.90974390506744 1.94989013671875 2.99814510345459 4.47736930847168 4.97454786300659 5.25403118133545 5.25170993804932 5.13315105438232 5.27021265029907 5.66541290283203 5.73209476470947 4.82129430770874 4.0536527633667 4.27629852294922 10.317458152771 7.39793157577515 9.06225109100342 11.752890586853
9.0128927230835 5.40989112854004 3.42028784751892 2.01052570343018 2.33708524703979 2.38364744186401 2.33102297782898 2.31313347816467 2.32645177841187 2.59777903556824 2.68730139732361 2.63178992271423 2.63188982009888 2.45268607139587 2.31475734710693 2.16550827026367 1.89910125732422 1.6017233133316 2.77180767059326 3.32839965820312 3.82735824584961 7.53479385375977 12.137152671814 8.15363216400146 2.6298508644104 2.49627423286438 1.45249736309052 -0.853130996227264 -0.892902612686157 -0.571759760379791 -0.164048999547958 -0.174824595451355 0.00879476685076952 -0.127594485878944 -0.687451660633087 -1.05579447746277 -1.04682874679565 -0.252372562885284 -0.0561930723488331 0.204404294490814 0.506280362606049 0.747604191303253 0.929737448692322 0.955252349376678 0.988403260707855 1.09107530117035 1.50850713253021 1.79656159877777 2.1737425327301 2.66610622406006 2.9549298286438 3.31664848327637 3.57538723945618 3.43570518493652 3.59829950332642 3.84968185424805 4.45055341720581 5.67222785949707 11.7864942550659 11.190580368042 8.58048915863037 7.77178382873535 7.38015794754028 6.66901397705078 7.91621923446655 8.55318737030029 7.414306640625 7.11522436141968 8.86511039733887 13.5918703079224 13.6956377029419 16.1348400115967 16.8127937316895 14.1995668411255 10.9038219451904 9.06131362915039 7.95368146896362 6.68206596374512 4.93876457214355 2.8831684589386 0.656066834926605 -0.0492890179157257 -0.355246871709824 -0.638747811317444 -1.0247323513031 -1.40991854667664 -1.65691959857941 -1.7242945432663 -0.662620842456818 -0.871380686759949 -0.792080938816071 -0.655348777770996 -0.507038116455078 -0.698552489280701 -0.385170817375183 -0.291434645652771 -0.150673627853394 -0.50343918800354 -0.701518833637238 -0.881878316402435 -0.82397997379303 -0.556478798389435 -0.215446844696999 0.0939993187785149 0.299366295337677 0.336530178785324 0.227559015154839 0.857981145381927 1.72591388225555 2.12864112854004 2.32187247276306 3.41385984420776 5.27734088897705 6.87251615524292 7.40300035476685 8.42040252685547 8.90473556518555 9.68072891235352 9.09837245941162 7.0391263961792 6.93988990783691 6.32181835174561 5.29466676712036 3.99122762680054 2.95333099365234 2.56016254425049 2.38089227676392 4.40281438827515 5.85686922073364 6.55027389526367 6.81025648117065 7.58181142807007 7.80983257293701 8.03952693939209 7.12543773651123 5.13261032104492 3.67934274673462 2.89020729064941 1.81329596042633 1.14877665042877 1.05864071846008 1.06921970844269 1.0618622303009 4.18203163146973 5.59018898010254 5.13355875015259 4.95086669921875 7.43878030776978 9.71354389190674 6.29093790054321 5.66670894622803 3.57712364196777 2.00544047355652 2.00402355194092 1.97118628025055 1.95361816883087 1.95920848846436 2.05180430412292 5.66871070861816 7.54486274719238 6.82216215133667 5.37141084671021 5.62591361999512 5.96944856643677 6.32564163208008 6.10998678207397 5.07239007949829 5.26271724700928 6.2090425491333 12.857253074646 7.97973155975342 9.48290634155273 13.6627759933472
5.03561067581177 5.2293496131897 1.48169350624084 2.11998057365417 2.3725266456604 2.4132080078125 2.37178182601929 2.3629469871521 2.37228488922119 2.6502583026886 2.75804209709167 2.69787073135376 2.57857275009155 2.49515986442566 2.37113308906555 2.2239134311676 1.95710551738739 1.60792744159698 2.52041363716125 2.25844740867615 3.94121146202087 6.55837678909302 4.83643913269043 2.90950679779053 -0.380996733903885 -0.866806387901306 -1.11942791938782 -0.808814704418182 -0.745775759220123 -0.384155660867691 0.0287026595324278 0.12267742305994 0.171460792422295 0.0527323856949806 -0.326534152030945 -0.670577824115753 -0.702234983444214 0.039896946400404 0.391503840684891 0.426210463047028 0.74457460641861 1.01082026958466 1.17629599571228 1.24957990646362 1.29472470283508 1.48092484474182 1.87065029144287 2.19855809211731 2.64252161979675 3.25581645965576 4.49004316329956 4.25963687896729 4.11663293838501 3.56322503089905 3.66446232795715 4.77117300033569 5.87004041671753 5.55765008926392 10.3904733657837 11.8001079559326 5.70707130432129 6.22385215759277 6.33319139480591 5.62726068496704 7.39915418624878 7.96786117553711 6.23775959014893 6.5373101234436 6.83535575866699 14.0492277145386 13.8714685440063 15.7578067779541 17.2200984954834 16.1596622467041 12.3538293838501 9.46829795837402 8.20237922668457 6.38365411758423 4.991286277771 3.11626672744751 0.782264709472656 0.114539623260498 -0.294015794992447 -0.522895157337189 -0.891539216041565 -1.27273166179657 -1.50115096569061 -1.14975810050964 -0.768232762813568 -0.757560431957245 -0.71049553155899 -0.618311166763306 -0.472799271345139 -0.684816598892212 -0.35453736782074 -0.280311971902847 -0.323783874511719 -0.467028498649597 -0.611787557601929 -0.771043062210083 -0.583734154701233 -0.340077221393585 0.0785216242074966 0.489872843027115 0.618656694889069 0.586295962333679 0.796642661094666 1.60887277126312 2.4681921005249 2.72294092178345 2.62677788734436 3.82120513916016 5.98445320129395 7.66323184967041 8.35712623596191 9.63740348815918 10.4078674316406 11.2844581604004 10.5095119476318 7.97689914703369 7.87642669677734 6.99918699264526 5.86023378372192 4.43991613388062 3.29638266563416 2.82317304611206 2.55538821220398 5.41664695739746 7.26961421966553 8.41049480438232 7.4138503074646 7.85653018951416 8.43517780303955 8.03921508789062 7.23495864868164 4.18642473220825 3.50686192512512 3.13556981086731 2.12942504882812 1.18659400939941 1.70350253582001 2.11876916885376 1.09943199157715 1.00478529930115 1.05169749259949 2.29551768302917 2.84293007850647 1.07944428920746 1.37136089801788 1.77554416656494 1.81330037117004 1.9837452173233 2.06179857254028 2.07122159004211 2.03700733184814 2.01357674598694 2.01175093650818 2.05558228492737 2.14162158966064 5.13607931137085 8.28845977783203 5.89506435394287 5.85431432723999 7.23552322387695 7.32503032684326 6.61477327346802 5.74896764755249 6.46026134490967 3.81355881690979 4.03799200057983 4.09295606613159 10.2035007476807 15.6125679016113
0.641819715499878 2.90266680717468 1.72590374946594 2.19512939453125 2.47022199630737 2.46962404251099 2.41999220848083 2.41375780105591 2.41723108291626 2.70260715484619 2.82192420959473 2.75614356994629 2.59458231925964 2.50003504753113 2.42397785186768 2.27239871025085 2.31027436256409 2.17255663871765 3.21999049186707 1.97044277191162 3.49171686172485 5.00531339645386 0.335940957069397 -0.00947063323110342 -0.372525662183762 -0.796877920627594 -0.870524883270264 -0.515170514583588 -0.475018113851547 -0.14455446600914 0.275631606578827 0.369353502988815 0.332206815481186 0.879203975200653 1.35018765926361 0.133142918348312 -0.626802027225494 0.174455657601357 0.72055971622467 0.823878645896912 1.08011758327484 1.37398898601532 1.59588956832886 1.6485607624054 1.65568971633911 1.87162983417511 2.2468159198761 2.55589485168457 3.79294991493225 5.15812587738037 5.90791368484497 5.53928184509277 6.15656042098999 3.93632984161377 4.3757438659668 6.01781225204468 6.81988620758057 5.86651659011841 5.34518146514893 3.42292833328247 5.59070301055908 5.8626503944397 6.35336446762085 5.394700050354 5.666090965271 6.0131983757019 6.14211177825928 6.93924808502197 6.70335578918457 7.20512104034424 14.2821350097656 14.8928155899048 16.6513900756836 18.1386165618896 14.3744297027588 10.9172773361206 8.8924503326416 6.43363666534424 4.76541137695312 3.46229863166809 1.37230503559113 0.298840403556824 -0.276900976896286 -0.424558460712433 -0.748752892017365 -1.18951964378357 0.747153043746948 0.55363792181015 -0.304364025592804 -0.192651584744453 -0.695951759815216 -0.59167069196701 -0.396941035985947 -0.634799659252167 -0.306197017431259 -0.259960025548935 -0.306913137435913 -0.439980447292328 -0.531324028968811 -0.685687065124512 -0.422207146883011 -0.210548684000969 0.258984178304672 0.650669038295746 0.763568103313446 1.14009785652161 1.79247641563416 2.11238431930542 2.67200064659119 2.85922408103943 2.86622738838196 4.27321767807007 6.85508918762207 8.6520528793335 9.5517110824585 11.1479825973511 12.9743070602417 13.3210744857788 12.4606599807739 9.24101543426514 9.13860607147217 7.87230777740479 6.57401323318481 4.96868705749512 3.67769455909729 3.16101503372192 2.74187588691711 5.71177816390991 5.94834041595459 4.52272748947144 6.0531325340271 8.26872825622559 9.14585494995117 8.38831615447998 8.01608753204346 4.34170866012573 3.53607583045959 3.32062029838562 2.32752180099487 1.73401057720184 3.76097369194031 4.63424587249756 1.56346559524536 1.17033195495605 1.12685859203339 1.11634182929993 1.04391634464264 1.14789497852325 1.5067081451416 1.86894643306732 2.03460073471069 2.14655780792236 2.20185232162476 2.231769323349 2.15905332565308 2.09837317466736 2.07869791984558 2.09705805778503 2.14748907089233 3.7315526008606 4.90197038650513 4.67500686645508 6.2492847442627 9.23597621917725 9.52369403839111 7.20617055892944 6.11121034622192 5.39724540710449 3.82994103431702 4.0480318069458 4.10456418991089 8.38020038604736 15.8015632629395
0.816837012767792 1.2797064781189 1.66344165802002 2.22805666923523 2.54092073440552 2.53810787200928 2.48084664344788 2.47785305976868 2.4705274105072 2.75986361503601 2.87659287452698 2.88683748245239 2.63783931732178 2.55392670631409 2.41386413574219 2.32764911651611 1.97620165348053 1.61764812469482 1.17669832706451 0.768048346042633 0.742810547351837 0.596582114696503 0.348396986722946 0.104254692792892 -0.240462347865105 -0.559096395969391 -0.603832721710205 -0.254238158464432 -0.194513216614723 0.0938405767083168 0.432235091924667 0.497041672468185 0.520637333393097 2.56836915016174 3.77291584014893 0.908284425735474 -0.413041710853577 0.819405078887939 1.21904122829437 1.17988812923431 1.2765280008316 1.66006624698639 1.93344330787659 2.03337454795837 2.03202366828918 2.25393342971802 2.64532089233398 2.76817417144775 4.9762110710144 6.65078449249268 7.99598121643066 6.00787544250488 4.9003701210022 4.0086784362793 4.86218118667603 6.24750280380249 7.13650274276733 6.78698253631592 3.9950954914093 3.36843252182007 4.19657039642334 5.27345561981201 4.4183988571167 5.74320840835571 5.79027223587036 5.73637056350708 5.81729459762573 8.63580322265625 7.25525808334351 7.15499496459961 12.028923034668 16.5828952789307 15.3933696746826 17.1846542358398 15.887017250061 12.6433057785034 10.2451171875 7.10281610488892 4.83305644989014 4.22608947753906 2.82834935188293 0.367169052362442 -0.112044453620911 -0.595549643039703 -0.759152829647064 -1.13732254505157 -1.49642872810364 -1.00237822532654 0.343472450971603 -0.103408955037594 -0.681358695030212 -0.53596442937851 -0.313177555799484 -0.578719973564148 -0.255671799182892 -0.193156465888023 -0.242496684193611 -0.389703392982483 -0.50215470790863 -0.664571404457092 -0.371341496706009 -0.0066168699413538 0.420803904533386 0.788332402706146 0.906675755977631 1.63738310337067 2.11462569236755 2.420814037323 2.82538414001465 3.0195848941803 3.25111031532288 4.95010328292847 8.00245094299316 9.76509666442871 13.1453351974487 15.4259424209595 17.03346824646 17.3863048553467 12.9108333587646 10.9255104064941 10.8159494400024 9.11658000946045 7.48825263977051 5.63459587097168 4.16688776016235 3.59603595733643 2.95925760269165 2.40154099464417 3.38627672195435 4.75220060348511 6.23934936523438 9.33065414428711 9.75048732757568 9.41153335571289 5.95312452316284 4.5270037651062 3.50341367721558 3.36899352073669 2.45767831802368 1.57360768318176 3.13435792922974 5.49556684494019 3.68934202194214 1.30681383609772 1.26759803295135 1.17918181419373 1.10477805137634 1.32396519184113 1.73136305809021 2.10870671272278 2.36784267425537 2.39989161491394 2.35589456558228 2.34330916404724 2.26264214515686 2.17851305007935 2.1496901512146 2.14780497550964 2.16790509223938 4.63735389709473 3.19866538047791 4.78097438812256 6.36259365081787 11.2120590209961 14.0886354446411 9.48025512695312 6.30972146987915 4.98668527603149 3.87987661361694 4.15042543411255 4.171471118927 3.69760179519653 3.09510970115662
1.03257036209106 1.4567619562149 1.93902039527893 2.25862741470337 2.6476423740387 2.65121054649353 2.56275606155396 2.55519485473633 2.53396391868591 3.06856465339661 3.53541564941406 3.43099093437195 2.67931413650513 2.59455156326294 2.42041683197021 2.10284185409546 1.88299405574799 1.64529168605804 1.20007419586182 0.782857239246368 0.77765679359436 0.778294801712036 0.562598645687103 0.340361177921295 -0.00185292225796729 -0.401232451200485 -0.416425168514252 -0.0937222689390182 -0.107310563325882 0.148731410503387 0.506392538547516 0.55537223815918 1.40441536903381 1.32850682735443 0.238399550318718 0.34218841791153 0.17161937057972 0.978640019893646 1.37838542461395 1.33739101886749 1.41085076332092 2.04081749916077 2.19505929946899 2.76518416404724 2.85646820068359 3.18711733818054 3.00870752334595 3.34396123886108 6.00249814987183 8.37038707733154 10.363299369812 6.12725687026978 3.86268639564514 4.10065984725952 5.10729551315308 6.4497275352478 6.41454839706421 5.11245441436768 4.10207366943359 3.53575396537781 3.3160548210144 3.39471435546875 4.64899778366089 5.09605836868286 5.83759260177612 5.8448429107666 5.94061040878296 8.58783531188965 7.73028707504272 8.03599166870117 12.241641998291 18.8814468383789 17.446008682251 15.8414707183838 15.6744403839111 13.4800443649292 11.049111366272 7.97155141830444 5.01614046096802 4.93216848373413 3.48207211494446 0.599966168403625 0.0650657638907433 -0.60387772321701 -0.756729602813721 -1.12041282653809 -1.54514706134796 -1.52074587345123 -1.29699337482452 -0.914232313632965 -0.616484105587006 -0.43729093670845 -0.216848134994507 -0.169062629342079 -0.0879852250218391 -0.0769903436303139 -0.134184136986732 -0.22596338391304 -0.435841888189316 -0.558123767375946 -0.323386967182159 0.21078884601593 0.568069517612457 0.891977190971375 1.52901661396027 1.99916362762451 2.42103910446167 2.7715175151825 3.01132369041443 3.25321245193481 4.89511203765869 7.47854375839233 9.94400596618652 13.9814348220825 17.0895404815674 20.6446781158447 24.094669342041 24.5422115325928 14.5311594009399 13.5299310684204 11.919774055481 10.7731285095215 8.71848297119141 6.50620269775391 4.86400508880615 4.07576990127563 3.12203693389893 2.57444882392883 3.40003204345703 3.38217329978943 4.98994016647339 6.97903537750244 9.86034202575684 6.21194505691528 2.73330616950989 3.74035334587097 4.00755405426025 3.44276022911072 3.07280778884888 1.35158407688141 1.27134525775909 1.07853722572327 1.22799551486969 1.36174702644348 1.41108727455139 1.37190401554108 1.25060963630676 1.56935060024261 1.98164355754852 2.38096117973328 2.58354759216309 2.59565043449402 2.53145623207092 2.39043951034546 2.31714463233948 2.25556755065918 2.23082542419434 2.21423673629761 2.1965229511261 2.5291051864624 3.74427080154419 4.86641263961792 5.78531789779663 6.26063680648804 6.46843481063843 10.6097049713135 7.9327826499939 4.35478210449219 3.96623301506042 4.27639532089233 4.2072606086731 3.78117227554321 3.19368314743042
1.23582661151886 1.66885280609131 2.33351969718933 2.4593243598938 2.78617072105408 2.76450347900391 2.6558985710144 2.59706449508667 3.6594398021698 4.5429949760437 3.4749493598938 3.95091199874878 3.16635608673096 2.62221336364746 2.43884778022766 2.12768936157227 1.85842823982239 1.52673637866974 1.25237846374512 0.789654970169067 0.963764846324921 1.02946484088898 0.879214525222778 0.625766575336456 0.189844086766243 -0.286962330341339 -0.333191007375717 -0.0243848599493504 -0.0544725060462952 0.185344696044922 0.977223336696625 0.595272719860077 0.291735917329788 -0.0481286570429802 -0.542225360870361 -0.934709429740906 0.415650695562363 1.319127202034 1.61242866516113 1.56218028068542 1.57450175285339 2.65161323547363 3.07739806175232 3.7322826385498 4.4268045425415 4.07725620269775 3.28140068054199 3.51413869857788 8.42650985717773 7.07494926452637 3.09921836853027 3.90958642959595 3.90879964828491 4.9626350402832 5.14168930053711 6.88440179824829 6.9663028717041 5.8622989654541 4.48899507522583 3.97992539405823 3.58123135566711 3.44601964950562 4.24996852874756 5.21665668487549 5.91750240325928 5.94369268417358 5.54995489120483 5.44031143188477 6.59696006774902 6.73928165435791 7.8874044418335 13.0950355529785 21.0164947509766 20.8647861480713 18.1452598571777 14.5421419143677 11.8449010848999 8.43004035949707 5.05001163482666 5.15998220443726 4.15765428543091 0.679899752140045 0.135418131947517 -0.529068529605865 -0.832922101020813 -1.12866151332855 -1.44605302810669 -1.44193661212921 -1.2281152009964 -0.765257775783539 -0.571209609508514 -0.204329580068588 -0.151166334748268 -0.00875620823353529 0.133901715278625 0.197701528668404 0.207786396145821 -0.0352651178836823 -0.211637631058693 -0.35107010602951 -0.246306777000427 0.289381325244904 0.735336601734161 1.03122508525848 1.9865802526474 2.42816519737244 2.89302778244019 3.44335007667542 3.38423657417297 3.3965003490448 6.28621053695679 11.6878757476807 14.1648292541504 17.7676753997803 22.5026226043701 29.6731662750244 31.3707695007324 31.7261276245117 20.7962913513184 17.0498352050781 13.2175483703613 12.0211067199707 10.10289478302 7.46615409851074 5.21549892425537 4.25818824768066 3.73797297477722 3.35528039932251 3.78460574150085 3.05029344558716 2.04500532150269 1.2862024307251 2.64582681655884 5.10263395309448 2.99501180648804 2.7676374912262 4.82434034347534 4.42354536056519 4.19613552093506 1.36879765987396 1.32997298240662 1.25989437103271 1.27663266658783 1.40899658203125 1.55335378646851 1.55064940452576 1.4367892742157 1.76571118831635 2.20494031906128 2.58134341239929 2.77199602127075 2.74581742286682 2.6790828704834 2.52667808532715 2.40765452384949 2.34301948547363 2.29394507408142 2.22498464584351 2.05011534690857 1.97668397426605 2.11293458938599 3.34901142120361 6.12866115570068 7.46706485748291 4.10833835601807 5.31341075897217 6.54381561279297 4.93115139007568 4.00678825378418 4.46600198745728 4.3539891242981 3.80243730545044 3.33258104324341
1.30740809440613 1.77430748939514 2.5557701587677 2.80107498168945 2.89503693580627 2.85121130943298 2.74104356765747 2.6574878692627 2.74537587165833 2.79899597167969 2.89510250091553 4.3900580406189 3.84460186958313 2.65125870704651 2.48407912254333 2.19996380805969 1.91242241859436 1.61130082607269 1.26220393180847 0.909478902816772 1.13611233234406 1.21451938152313 1.1008495092392 0.812940418720245 0.270932197570801 -0.234017446637154 -0.0221353713423014 0.052607350051403 -0.00908618979156017 0.190254703164101 0.521135687828064 0.645835340023041 0.380931854248047 -0.219684734940529 -0.522078812122345 -0.581625282764435 0.743219494819641 1.62819969654083 1.90946662425995 1.89950096607208 2.39041447639465 3.22495627403259 3.91559624671936 5.6679801940918 6.90136575698853 5.84364366531372 4.73906803131104 3.96516680717468 3.15499973297119 2.84988117218018 2.76213932037354 3.29207563400269 3.938556432724 3.9980833530426 4.8170428276062 4.43553256988525 6.01284742355347 5.11613178253174 4.84636735916138 4.29207706451416 3.99938464164734 3.79021263122559 4.4756064414978 5.57821798324585 6.46447610855103 6.21111154556274 5.56340932846069 5.43708229064941 6.13383102416992 6.74223709106445 6.70397520065308 9.16462802886963 15.6618642807007 15.2145118713379 17.5296039581299 17.8550205230713 12.3332300186157 9.32151508331299 5.77155208587646 2.47664022445679 3.48529314994812 0.735051929950714 0.254862636327744 -0.405894964933395 -0.656134784221649 -1.01179707050323 -1.13844585418701 -1.24420404434204 -0.8754021525383 -0.524544179439545 -0.353384882211685 0.061303187161684 -0.0257270392030478 0.298046439886093 0.485461950302124 0.59816038608551 0.555712401866913 0.314151793718338 0.0444468706846237 -0.139214232563972 -0.10688941180706 0.407536178827286 0.892013788223267 2.47931265830994 3.30797433853149 3.56755423545837 3.56944847106934 4.0779972076416 3.81708025932312 4.63909435272217 8.56472873687744 14.7623510360718 16.5101795196533 20.6391277313232 26.0677967071533 18.3957042694092 15.9138603210449 10.5026378631592 16.4539813995361 23.1597232818604 16.5711612701416 13.2736682891846 9.22979259490967 7.07629442214966 5.5012378692627 4.36445140838623 4.35145139694214 4.64519786834717 4.29326820373535 3.64281392097473 2.50176167488098 1.56236588954926 1.686678647995 6.43457984924316 3.18884682655334 3.00392127037048 3.46781754493713 3.09823775291443 1.83715546131134 1.4015406370163 1.53593218326569 2.3701798915863 1.55563032627106 1.52639985084534 1.65582013130188 1.71843564510345 1.61055171489716 1.9126250743866 2.32838797569275 2.71029567718506 2.89787411689758 2.87412285804749 2.82149124145508 2.65753364562988 2.53475213050842 2.46206879615784 2.39805555343628 2.30362176895142 2.14871048927307 2.05723142623901 2.12592339515686 2.27753448486328 2.38167119026184 2.41751670837402 4.2830023765564 3.15031981468201 3.10747241973877 3.5472731590271 4.26159334182739 4.64435195922852 4.54268932342529 4.1146125793457 3.67800569534302
1.41444277763367 1.91800510883331 2.73736715316772 3.00917530059814 3.01445031166077 2.93914484977722 2.83003187179565 2.72847938537598 2.9039888381958 2.83744621276855 2.91861820220947 2.80119252204895 2.68030214309692 2.65538740158081 2.53140115737915 2.26380515098572 1.9473237991333 1.65041542053223 1.37391936779022 1.36424958705902 1.35560691356659 1.41627168655396 1.20443654060364 0.845712840557098 0.344908118247986 -0.0128788696601987 0.35266450047493 0.31086254119873 0.0576818771660328 0.243830442428589 0.570397973060608 0.613874435424805 0.41461643576622 -0.330113500356674 -0.074216790497303 0.444397360086441 1.47399842739105 2.19330382347107 2.34184598922729 2.03677821159363 2.94399547576904 4.86201858520508 4.87090158462524 3.75270390510559 3.50140690803528 4.22021102905273 3.75441789627075 3.54828333854675 3.25275897979736 3.1637876033783 3.18643832206726 3.38913106918335 3.97708940505981 4.1149959564209 5.79532337188721 4.55684089660645 4.47598743438721 4.81793832778931 4.6757493019104 4.54284381866455 4.36048173904419 4.28527450561523 5.17983913421631 5.97366666793823 6.90532302856445 6.66987228393555 5.83246374130249 5.60453701019287 6.3333888053894 7.19812107086182 6.86027240753174 7.01211500167847 8.38149547576904 12.1224241256714 12.3125944137573 15.1736488342285 14.1857223510742 9.86104774475098 5.92244338989258 1.31131231784821 1.44993078708649 1.15004932880402 0.346223086118698 -0.24383570253849 -0.179800003767014 -0.43985503911972 -0.653279662132263 -0.898060083389282 -0.475631773471832 -0.13192343711853 0.255202054977417 0.748585402965546 0.320700705051422 0.543197751045227 0.712004065513611 0.784006655216217 0.698899328708649 0.479547530412674 0.218192279338837 0.155037194490433 0.146394848823547 0.603972971439362 0.979355812072754 3.77015018463135 4.74023485183716 4.39430856704712 4.7338547706604 4.92711067199707 4.81340456008911 5.8424711227417 13.2274188995361 16.9509239196777 17.750020980835 22.4565467834473 14.347466468811 7.363121509552 5.16061353683472 5.7853684425354 10.8081684112549 17.1359539031982 17.9658908843994 15.5739326477051 10.85999584198 8.35522365570068 5.74604845046997 4.65363883972168 6.84283447265625 6.82218933105469 5.10379934310913 4.24781799316406 2.8711633682251 2.22742319107056 -0.342439353466034 -0.183319076895714 3.2258186340332 2.15669226646423 2.57030510902405 1.02985715866089 1.22636246681213 1.42787992954254 3.68199586868286 7.90466690063477 6.09503269195557 2.37976551055908 1.77727472782135 1.80298149585724 1.72369754314423 2.00763082504272 2.40157294273376 2.79232978820801 2.98369193077087 2.97508835792542 2.93849587440491 2.80287265777588 2.68131136894226 2.5905385017395 2.48496675491333 2.44621348381042 2.27178692817688 2.15419292449951 2.17010593414307 2.28109359741211 2.4552059173584 2.30043530464172 2.35505247116089 3.03876733779907 3.79761505126953 3.79790186882019 4.55063104629517 4.83201932907104 4.77863550186157 4.47225284576416 3.9661819934845
1.56954622268677 2.09560608863831 2.90383958816528 3.19621086120605 3.1370575428009 3.05927276611328 2.94741868972778 2.86127996444702 3.08618712425232 3.09172034263611 3.01246404647827 2.93755483627319 2.77026176452637 2.70039439201355 2.59709453582764 2.32014203071594 1.98680186271667 1.72665131092072 1.46059477329254 1.73266243934631 1.66722989082336 1.58941864967346 1.28823113441467 0.909504175186157 0.376460075378418 0.308945506811142 0.639657855033875 0.451751619577408 0.134549379348755 0.345657467842102 0.651925981044769 0.616182744503021 0.451785326004028 0.730189621448517 0.703173637390137 0.92088520526886 2.03626894950867 2.37022519111633 3.09496879577637 2.84955263137817 4.30807781219482 5.98128509521484 5.4123682975769 3.21936416625977 2.27467584609985 2.72525930404663 3.0858428478241 3.60397005081177 4.39714002609253 4.5229377746582 5.07694435119629 5.44331693649292 5.45325326919556 4.67629384994507 3.71669673919678 4.45619773864746 4.55004072189331 4.55708837509155 4.89834117889404 4.80856800079346 4.74954557418823 4.76616668701172 5.5570650100708 6.28131294250488 7.08844661712646 6.89880514144897 6.09275674819946 6.10333204269409 6.85657453536987 7.82215261459351 7.65712881088257 7.60381269454956 8.49549674987793 9.47516441345215 10.1385917663574 10.3373575210571 11.007134437561 10.2901525497437 6.21808862686157 1.32264339923859 0.329005151987076 0.451795279979706 0.562049567699432 0.0799341201782227 0.1446802765131 -0.0606625974178314 -0.307434409856796 -0.402141690254211 -0.00337150879204273 0.341480612754822 0.66688472032547 1.10442662239075 0.53296834230423 0.67703515291214 0.874619364738464 0.972242414951324 0.881359279155731 0.679279327392578 0.408273458480835 0.36065536737442 0.48175236582756 0.681069910526276 0.992028415203094 5.26394653320312 6.90669727325439 5.98187923431396 6.12727499008179 7.09504747390747 5.93220472335815 6.85957908630371 7.61241912841797 17.6643486022949 18.1549301147461 9.84840774536133 5.80051565170288 7.64874601364136 6.42735004425049 5.0686559677124 5.55338001251221 6.25247049331665 14.4161176681519 18.1722221374512 10.9534206390381 6.71967887878418 5.19564342498779 4.71594858169556 9.03066730499268 4.90937423706055 4.87620401382446 3.95662355422974 3.18082356452942 2.67759799957275 -0.123341642320156 -0.0947656631469727 0.225288301706314 0.463956147432327 0.611348390579224 1.09260439872742 1.39426040649414 1.53778743743896 1.61101841926575 8.78398323059082 12.8329315185547 3.98869466781616 1.98757612705231 1.83577156066895 1.83065068721771 2.11946058273315 2.46739554405212 2.81845426559448 3.00564503669739 3.10211968421936 3.08267450332642 2.94747948646545 2.84352374076843 2.80393266677856 2.71088051795959 2.60920357704163 2.39378714561462 2.25272154808044 2.28758454322815 2.35778784751892 3.89743065834045 2.47107720375061 2.41186380386353 2.64140367507935 3.01317691802979 3.89140200614929 4.64003419876099 4.93095874786377 4.86447763442993 4.63930892944336 4.20519590377808
