NCOLS 172
NROWS 32
XLLCORNER 353936
YLLCORNER 6700176
CELLSIZE 16 
NODATA_value -3.4e+38 
-0.195533901453018 0.324614942073822 0.387101918458939 0.181288599967957 0.286413908004761 0.405686974525452 0.610834836959839 0.901805877685547 1.30204927921295 2.05519080162048 3.11276030540466 4.75352096557617 6.97593307495117 8.23208236694336 1.10653066635132 0.677195370197296 0.436331003904343 0.518593490123749 0.565461456775665 0.624405264854431 0.669547975063324 0.729707062244415 0.801603257656097 0.889207541942596 0.983352541923523 1.07219040393829 1.19812786579132 1.27924120426178 1.33730828762054 1.41806554794312 1.49665677547455 1.57758462429047 1.66297650337219 1.755295753479 1.85847806930542 1.96534812450409 2.18928813934326 2.3350727558136 2.44118857383728 2.52522397041321 2.73023700714111 3.02966380119324 3.35012912750244 3.74789905548096 4.34432554244995 4.9727087020874 5.73831605911255 7.67139053344727 10.1698694229126 11.987232208252 3.82289743423462 2.63675332069397 2.69213676452637 2.8356454372406 2.97733879089355 3.1811408996582 3.45435190200806 3.81542444229126 4.05826377868652 4.23780918121338 4.43012380599976 4.63172578811646 4.82463359832764 5.06469964981079 5.29807138442993 5.54444074630737 5.82940530776978 6.17398166656494 6.5879693031311 7.02519512176514 7.56850862503052 8.20840835571289 8.93637371063232 9.81766605377197 10.9997339248657 12.5729932785034 14.5220232009888 17.2159099578857 21.0307292938232 28.3911647796631 32.5385856628418 21.0271110534668 9.90555095672607 7.05065155029297 5.95988082885742 4.01695394515991 4.50054931640625 4.97510862350464 5.73869132995605 1.71639668941498 1.80329763889313 2.48257517814636 3.25277209281921 3.89979243278503 4.89130258560181 6.45900964736938 8.142822265625 9.8500337600708 9.99132251739502 10.3891525268555 4.29212188720703 4.39150714874268 5.15007400512695 5.69093942642212 6.75612497329712 7.80085945129395 9.24749565124512 10.7778053283691 12.4820289611816 15.8752708435059 20.6299266815186 8.62979507446289 4.08334493637085 1.3090101480484 -0.0564628802239895 0.861413180828094 -0.0523321777582169 0.272608995437622 3.34723138809204 5.20080327987671 6.11064147949219 8.7252025604248 13.8935470581055 6.30115175247192 6.67770576477051 7.49354648590088 6.92104339599609 6.98062324523926 7.38022470474243 7.60931921005249 7.81285619735718 8.48272323608398 6.50921583175659 4.51693058013916 0.572705924510956 -0.0698044970631599 0.01016332115978 -1.36698055267334 -3.4474892616272 -3.29844784736633 -3.0834972858429 -2.25999307632446 -1.53202676773071 -1.0304719209671 -0.641102612018585 -0.181145951151848 0.342762112617493 1.18150079250336 1.56528496742249 2.24474000930786 3.76929235458374 5.01349449157715 6.56594038009644 7.83576917648315 5.08149147033691 1.46164381504059 -0.759186923503876 -0.535839140415192 -0.375903278589249 -0.214319586753845 -0.0633242577314377 0.128369852900505 0.326202243566513 0.549768030643463 0.774345755577087 1.01764285564423 1.22380685806274 1.36491167545319 1.50582528114319 1.68483984470367 1.86738133430481 1.99789214134216
0.366821676492691 0.897270083427429 1.64036798477173 0.217360869050026 0.411806225776672 0.593639075756073 0.960401952266693 1.41982662677765 2.16266918182373 3.35707330703735 3.91304349899292 3.96480417251587 5.17824697494507 4.45210123062134 0.456761628389359 0.499424457550049 0.45701739192009 0.506263375282288 0.581545412540436 0.637597441673279 0.701984941959381 0.78412002325058 0.859789371490479 0.948643147945404 1.04913938045502 1.13903200626373 1.22865009307861 1.38654398918152 1.41358780860901 1.5100839138031 1.60489904880524 1.69690334796906 1.79797530174255 1.90756249427795 2.03802299499512 2.16797232627869 2.30387616157532 2.48010635375977 2.51619696617126 2.6897599697113 2.9340922832489 3.21291899681091 3.56600475311279 4.00019979476929 4.52264404296875 5.26586723327637 6.45409059524536 7.94194364547729 10.1830167770386 9.6631441116333 4.91285943984985 2.7516074180603 2.82967972755432 2.98957419395447 3.15397047996521 3.35418963432312 3.63314390182495 4.02899789810181 4.28793096542358 4.46894454956055 4.64807844161987 4.86491918563843 5.03225183486938 5.26178693771362 5.4894552230835 5.73711538314819 6.00733232498169 6.31206893920898 6.64735889434814 7.03635501861572 7.47729396820068 7.98102998733521 8.61853694915771 9.45849227905273 10.4810075759888 11.7895936965942 13.3955602645874 15.4643182754517 18.7391300201416 23.3836479187012 28.3931484222412 29.4913063049316 15.9723863601685 8.3107967376709 8.5294885635376 9.41004467010498 6.69860553741455 3.67386054992676 3.42878150939941 1.69737899303436 1.86443865299225 2.32821941375732 2.69421339035034 3.61926984786987 4.42181730270386 5.00642347335815 5.40147018432617 7.07233905792236 7.68432855606079 5.53978443145752 5.57094144821167 5.99067115783691 6.51318597793579 6.92885875701904 7.45732164382935 8.35431003570557 9.4980936050415 10.3232479095459 11.4513282775879 12.6915855407715 12.768684387207 12.7000617980957 6.48553562164307 2.00217866897583 -0.115655109286308 -0.114740192890167 0.0163076147437096 1.00259673595428 3.44350171089172 5.06918096542358 6.57879686355591 11.1716623306274 14.6505651473999 5.92949295043945 6.24521827697754 7.0447735786438 7.60163354873657 7.90090894699097 8.26890182495117 8.84557151794434 9.17802143096924 8.26312255859375 4.32565450668335 2.63072323799133 0.665640294551849 -0.78890073299408 -0.1021658629179 0.583797037601471 -1.18462312221527 -3.52253890037537 -3.36386609077454 -2.90104913711548 -2.11363792419434 -1.52636134624481 -0.743105292320251 -0.0596166029572487 0.684510231018066 1.42223477363586 2.12851715087891 2.58895921707153 2.96828818321228 5.15730810165405 7.455810546875 7.39372682571411 3.22767066955566 -0.848879814147949 -0.676100075244904 -0.577362179756165 -0.356738209724426 0.146231412887573 0.311452984809875 0.434880197048187 0.614247858524323 0.790752172470093 0.973247706890106 1.15802121162415 1.35919749736786 1.57524979114532 1.76965188980103 1.92039024829865 2.04604411125183 2.16713404655457
0.0869860053062439 0.141244605183601 0.159644782543182 0.357595682144165 0.568579792976379 0.742290735244751 1.02620053291321 1.60537481307983 2.98648381233215 3.23619484901428 2.58480000495911 2.88263273239136 3.65792274475098 4.11329889297485 1.17783677577972 0.750034868717194 0.393993437290192 0.398854494094849 0.470033138990402 0.522283673286438 0.595808506011963 0.692903935909271 0.778737723827362 0.862983286380768 0.953076601028442 1.04676449298859 1.13466513156891 1.28804314136505 1.31591987609863 1.41905045509338 1.53474390506744 1.64689838886261 1.74552643299103 1.83345806598663 1.91130173206329 2.00496363639832 2.13901782035828 2.32961010932922 2.42303681373596 2.54991436004639 2.76161980628967 3.02525019645691 3.33804297447205 3.73365068435669 4.23842239379883 4.93693256378174 5.85332298278809 7.1415638923645 8.37657737731934 8.01568603515625 5.89380741119385 2.73732972145081 2.80307698249817 2.926194190979 3.0908625125885 3.32890677452087 3.57075023651123 3.9264862537384 4.20172882080078 4.37049865722656 4.54236841201782 4.73193359375 4.92070865631104 5.11350965499878 5.33298397064209 5.57098007202148 5.83440732955933 6.14328289031982 6.45743274688721 6.85659170150757 7.30890846252441 7.84100818634033 8.44209671020508 9.14642238616943 9.95919418334961 10.9373197555542 12.206223487854 13.7994718551636 16.032772064209 19.230318069458 22.4323635101318 27.0067710876465 24.7598266601562 14.9032917022705 11.5243072509766 6.45028018951416 6.52121734619141 5.31202936172485 2.23392391204834 2.03817820549011 2.16131496429443 2.33307480812073 2.56887292861938 3.15652012825012 4.05994844436646 4.72131872177124 5.53066301345825 5.99558210372925 6.21653127670288 6.22177934646606 6.39229774475098 6.87490797042847 7.32883834838867 7.8094162940979 8.3711051940918 9.29047203063965 10.8254327774048 10.9405422210693 9.92159080505371 11.2878007888794 10.6338014602661 9.83220195770264 4.08115243911743 4.32013988494873 6.66909456253052 -0.424042046070099 -0.0565812699496746 1.13241517543793 3.2587366104126 4.87257385253906 6.02196216583252 10.569580078125 9.17349529266357 5.86282634735107 6.25329542160034 6.94853591918945 8.67848587036133 10.8376359939575 7.04054260253906 7.57282495498657 7.78943109512329 5.82079601287842 4.49083757400513 1.7599139213562 -1.15816032886505 -0.864554345607758 -0.118489950895309 -1.5199887752533 -2.19502258300781 -3.49450659751892 -3.27023148536682 -2.86908769607544 -2.47916674613953 -2.14082455635071 -1.70186197757721 -1.12302732467651 -0.693213999271393 -0.336824625730515 0.0327927097678185 0.470343589782715 1.01246333122253 1.09991693496704 1.46467447280884 1.97385382652283 0.556533634662628 -0.273915827274323 -0.540868043899536 -0.276072084903717 0.120169587433338 0.328633695840836 0.512653052806854 0.669684648513794 0.804090023040771 0.969859480857849 1.16182422637939 1.36191034317017 1.55826687812805 1.72433078289032 1.87775838375092 2.01423382759094 2.13457345962524 2.25245571136475
0.181264579296112 0.212863579392433 0.498785197734833 0.674700736999512 0.776431500911713 0.916988849639893 1.19663083553314 1.82716238498688 3.89055037498474 2.05331087112427 2.1218113899231 2.37652111053467 2.83511519432068 3.39506459236145 1.72819662094116 1.69223356246948 0.812615096569061 0.30284309387207 0.340856164693832 0.403325110673904 0.468958854675293 0.556264400482178 0.653290212154388 0.734816014766693 0.822752892971039 0.91838550567627 1.00455224514008 1.14169907569885 1.24411010742188 1.32889091968536 1.40629935264587 1.46676504611969 1.51506423950195 1.58855509757996 1.67203211784363 1.76134693622589 1.87579762935638 2.03066158294678 2.28124642372131 2.31107544898987 2.42328572273254 2.57666921615601 2.83934926986694 3.2066216468811 3.6383364200592 4.20461845397949 4.91008234024048 5.80442667007446 6.84111070632935 6.91148996353149 6.38091564178467 2.65332412719727 2.54242181777954 2.62422013282776 2.75453782081604 2.95425581932068 3.22590351104736 3.56085085868835 3.80312490463257 3.97089767456055 4.12668085098267 4.3061728477478 4.49158668518066 4.65057134628296 4.85994386672974 5.12111234664917 5.38502311706543 5.6879677772522 6.02379512786865 6.39812469482422 6.82519149780273 7.31038188934326 7.88717651367188 8.5335578918457 9.29197311401367 10.2000637054443 11.3333282470703 12.6225967407227 14.2176103591919 16.5568981170654 19.4072170257568 21.7456474304199 23.9482727050781 21.9183502197266 14.99729347229 4.60710716247559 5.87830400466919 6.0519437789917 2.29760789871216 2.45416951179504 2.34258985519409 2.47212648391724 2.67877817153931 3.1587278842926 4.06694173812866 4.73741436004639 5.67781734466553 6.34381675720215 6.81399869918823 6.83054161071777 6.96675777435303 7.57403945922852 8.34889698028564 8.97217082977295 10.0998449325562 11.6586923599243 15.2831239700317 19.1229782104492 11.9958591461182 6.94570922851562 6.4212794303894 4.63447666168213 0.981547832489014 1.21124923229218 3.76910758018494 -0.0605715326964855 0.271368980407715 1.55662167072296 3.16986012458801 4.48116874694824 5.63296127319336 7.48366355895996 6.67701864242554 6.25830602645874 7.33205509185791 9.0570068359375 11.1619720458984 8.51564693450928 6.26882982254028 5.25062656402588 5.3211030960083 5.27115297317505 4.05480289459229 1.1233948469162 -0.973563432693481 -1.23949956893921 -0.778484344482422 -1.80276608467102 -3.54629182815552 -3.36040949821472 -3.13681364059448 -2.8255398273468 -2.49715805053711 -2.17560386657715 -1.8041158914566 -1.55634534358978 -1.22907745838165 -0.972162902355194 -0.717390239238739 -0.457599282264709 -0.136234700679779 0.454023897647858 1.54292178153992 2.52738738059998 0.490982949733734 -0.494413793087006 -0.239188060164452 0.0965979695320129 0.321582287549973 0.484869658946991 0.620111048221588 0.742421209812164 0.890526175498962 1.07773017883301 1.26620435714722 1.45417153835297 1.66063821315765 1.84078645706177 1.98862779140472 2.11904954910278 2.24022483825684 2.35983085632324
0.211287334561348 0.519165515899658 0.706504464149475 0.781826615333557 0.915844082832336 1.04602909088135 1.36723840236664 2.403648853302 2.1308536529541 2.1454815864563 2.27410507202148 2.46979093551636 2.76491856575012 3.56278133392334 2.45175623893738 1.2618100643158 1.03049612045288 0.146398738026619 0.153235331177711 0.199086800217628 0.217228427529335 0.340875744819641 0.434082537889481 0.528830051422119 0.620064735412598 0.715620398521423 0.81533294916153 0.894877076148987 1.05269145965576 1.09311747550964 1.15297591686249 1.19790887832642 1.25438714027405 1.33147823810577 1.4042432308197 1.47613286972046 1.56322073936462 1.6957083940506 1.89517688751221 1.99921298027039 2.0678493976593 2.16610193252563 2.39408349990845 2.68409729003906 3.00484561920166 3.42148113250732 3.95998430252075 4.61258935928345 5.55058860778809 6.38897037506104 5.35071992874146 2.32385778427124 2.22012519836426 2.28293085098267 2.37258982658386 2.50659966468811 2.74350810050964 2.99787092208862 3.20433712005615 3.35329747200012 3.50685715675354 3.64647078514099 3.77983164787292 3.93407320976257 4.07736873626709 4.27246379852295 4.49840784072876 4.72817325592041 5.00363111495972 5.29858207702637 5.6225323677063 5.99451446533203 6.45551872253418 6.96173238754272 7.5890965461731 8.34436130523682 9.18296527862549 10.3055820465088 11.6552133560181 13.3717412948608 15.9511947631836 18.6122055053711 22.1575298309326 18.2299518585205 14.3850660324097 6.12139558792114 4.01580047607422 4.36377906799316 4.4282169342041 2.80822229385376 2.87324619293213 3.0241801738739 3.25359082221985 3.59069848060608 4.21418237686157 4.92400312423706 5.87033462524414 6.65450763702393 7.22634124755859 7.41728067398071 7.63790369033813 7.8958215713501 8.79419136047363 9.67134380340576 10.6818246841431 12.2778921127319 14.5764122009277 18.8524074554443 15.7427606582642 5.63159036636353 2.64111042022705 1.57106876373291 0.208621621131897 0.224489599466324 0.390324234962463 0.609978973865509 0.829951107501984 1.70369577407837 3.05430340766907 4.04813098907471 5.38998794555664 6.38540840148926 6.87406635284424 7.69549036026001 9.43836116790771 11.3378963470459 11.8664531707764 6.09027814865112 4.29641246795654 4.98589086532593 5.55700969696045 5.85170078277588 4.76647233963013 2.20020580291748 0.0913332104682922 -0.401075810194016 0.886105418205261 -3.6241774559021 -3.46766066551208 -3.29789280891418 -3.05201864242554 -2.72365760803223 -2.43077683448792 -2.10533690452576 -1.77780270576477 -1.52227342128754 -1.30204463005066 -1.18442583084106 -1.05456876754761 -0.948083221912384 -0.821657299995422 -0.674358487129211 -0.425699651241302 0.219302639365196 0.704853594303131 -0.0475381053984165 0.151953041553497 0.345166265964508 0.501947045326233 0.595994174480438 0.733803272247314 0.852428138256073 0.988268971443176 1.16057813167572 1.3527215719223 1.53251373767853 1.73750734329224 1.94302594661713 2.1093578338623 2.24029421806335 2.36115074157715 2.48253512382507
0.424820870161057 0.687645792961121 0.781360745429993 0.863100826740265 0.947618067264557 1.07535076141357 1.37047433853149 2.95494484901428 1.94939243793488 2.03080248832703 2.17452621459961 2.32931756973267 2.57519245147705 3.46919226646423 2.25929307937622 2.12792277336121 1.96589922904968 0.658373951911926 0.0186106581240892 0.0296322554349899 0.0420385263860226 0.157963812351227 0.267251968383789 0.352177083492279 0.370418429374695 0.485098302364349 0.648204028606415 0.738246858119965 0.865273654460907 0.96516352891922 1.00373578071594 1.04937434196472 1.10578238964081 1.16277134418488 1.21424174308777 1.28790211677551 1.38155198097229 1.49734926223755 1.59278583526611 1.65770518779755 1.78544461727142 1.9299134016037 2.09080862998962 2.35052800178528 2.59515929222107 2.82013440132141 3.2120406627655 3.84896039962769 4.68555974960327 5.67325592041016 5.2363805770874 2.2629075050354 1.83570969104767 1.89572179317474 1.98787450790405 2.08670592308044 2.22208762168884 2.38184475898743 2.53912544250488 2.68466901779175 2.83294630050659 2.97930669784546 3.15926647186279 3.28926610946655 3.43763947486877 3.58253169059753 3.75899052619934 3.94844317436218 4.16205215454102 4.3981032371521 4.6463475227356 4.92247104644775 5.24315118789673 5.63502550125122 6.08086633682251 6.57662296295166 7.24964332580566 8.18725204467773 9.43501663208008 10.869348526001 13.2470655441284 16.0502300262451 18.2718658447266 18.8901176452637 11.2578325271606 5.50486516952515 5.92354202270508 3.24940180778503 3.35655951499939 4.15811634063721 3.37148451805115 3.46407699584961 3.68212580680847 3.901935338974 4.30867576599121 4.91513967514038 5.59126091003418 6.38957071304321 6.98788595199585 7.33796262741089 7.42295742034912 7.45950698852539 8.00741958618164 8.77749443054199 9.77823829650879 11.0783042907715 13.8382320404053 18.7418613433838 11.3342456817627 4.75477838516235 1.52498495578766 2.02572727203369 0.443829238414764 0.525752365589142 0.751471698284149 1.08453035354614 1.39303851127625 1.97880744934082 3.086186170578 3.78668975830078 5.02584886550903 6.32067728042603 7.29255533218384 8.27993202209473 11.1130123138428 16.1646213531494 9.07979869842529 4.25845050811768 5.07613515853882 6.10337257385254 6.9308614730835 7.34156894683838 6.77119541168213 2.71526074409485 0.425895422697067 -0.70407509803772 -1.23924016952515 -3.31617379188538 -3.41790533065796 -3.25540113449097 -2.97637987136841 -2.61279392242432 -2.28916049003601 -1.98961985111237 -1.73604011535645 -1.50087285041809 -1.30354654788971 -1.17442429065704 -1.04807674884796 -0.900188148021698 -0.734829068183899 -0.573421716690063 -0.39343073964119 -0.1887316852808 -0.00552983721718192 0.185086727142334 0.370101869106293 0.537067055702209 1.23933577537537 0.755960404872894 0.898474335670471 1.02918195724487 1.14419078826904 1.30898535251617 1.4946653842926 1.67990863323212 2.00749349594116 2.21838641166687 2.3854067325592 2.51782321929932 2.63215374946594 2.74065947532654
0.569401979446411 0.749472498893738 0.849725902080536 0.940934240818024 1.01376068592072 1.08664631843567 1.3363151550293 2.0276415348053 2.64972543716431 2.1640350818634 2.32298517227173 2.47304058074951 2.6478476524353 2.81401348114014 2.97248554229736 3.09754300117493 2.08975267410278 1.25604808330536 -0.103431195020676 -0.0962107554078102 -0.0779713243246078 -0.00341424089856446 0.0740453749895096 0.159734025597572 0.222090259194374 0.296858608722687 0.476089477539062 0.573488891124725 0.664496958255768 0.806162118911743 0.8404541015625 0.880677700042725 0.934356033802032 0.983221352100372 1.04061591625214 1.11541211605072 1.20549559593201 1.29556894302368 1.39927136898041 1.47084486484528 1.52123892307281 1.65920996665955 1.80757248401642 1.95585536956787 2.14141750335693 2.28953242301941 2.51530981063843 2.90671896934509 3.43584132194519 4.35635662078857 4.92945671081543 3.39324045181274 1.47132134437561 1.50383186340332 1.5998694896698 1.7214617729187 1.80735599994659 1.89394509792328 1.9698920249939 2.06721019744873 2.3189857006073 2.73277640342712 2.99259376525879 3.09336543083191 3.16820192337036 3.23930215835571 3.31151080131531 3.38898754119873 3.46843528747559 3.55527091026306 3.63704943656921 3.72464275360107 3.93903160095215 4.14159536361694 4.45562028884888 4.86928510665894 5.36719512939453 6.05003213882446 7.08471584320068 8.2549352645874 9.758469581604 12.1684236526489 13.4007997512817 14.7128944396973 10.2864027023315 4.21544218063354 4.03295993804932 3.72911167144775 3.78179144859314 3.9273087978363 3.94076728820801 3.98037934303284 4.18596315383911 4.37923145294189 4.62198400497437 5.09882259368896 5.64114856719971 6.17598628997803 6.66962385177612 7.50929021835327 7.86783504486084 6.77968502044678 7.06923723220825 7.75247144699097 8.61693286895752 9.93969535827637 12.296046257019 15.6808090209961 9.21880722045898 3.73240947723389 0.740956604480743 0.811080873012543 0.887057840824127 0.897393584251404 1.14740169048309 1.39367461204529 1.7108029127121 2.2691388130188 2.99454855918884 3.58762645721436 4.51019287109375 5.22790479660034 6.46363306045532 7.54184198379517 9.00041103363037 12.5038175582886 9.11352252960205 4.80408477783203 5.9473729133606 6.94597148895264 8.0665979385376 9.66246700286865 8.12648391723633 3.66689515113831 1.20537781715393 -2.00286078453064 -2.05485510826111 -0.760319352149963 -3.35723853111267 -3.16541695594788 -2.8696928024292 -2.53992629051208 -2.18053388595581 -1.85402858257294 -1.658047914505 -1.44979226589203 -1.26220536231995 -1.12653517723083 -0.973273158073425 -0.80312442779541 -0.638261437416077 -0.473154813051224 -0.253780543804169 -0.032159723341465 0.191241383552551 0.330987572669983 0.489374071359634 0.800987839698792 1.46183502674103 1.71677315235138 1.15219867229462 1.28281021118164 1.37911701202393 1.53434348106384 1.72060549259186 1.90847849845886 2.23380398750305 2.41121077537537 2.59541177749634 2.75134372711182 2.88368535041809 3.00191760063171
0.615410506725311 0.742097139358521 0.86922687292099 0.992960929870605 1.09118103981018 1.19351637363434 1.38880169391632 1.81819367408752 3.9224488735199 2.29350113868713 2.42526483535767 2.68174076080322 2.99240064620972 3.30311036109924 4.20226335525513 2.38605761528015 2.1952817440033 1.56569063663483 0.321958065032959 -0.0803502947092056 -0.0851117968559265 -0.0342181660234928 0.0397624000906944 0.1072763428092 0.195725917816162 0.269912600517273 0.382757276296616 0.467563450336456 0.531733453273773 0.612229824066162 0.68928074836731 0.703028798103333 0.747314870357513 0.783747911453247 0.817935824394226 0.889063715934753 0.944144785404205 0.986589908599854 1.02583122253418 1.07499635219574 1.20438945293427 1.29134523868561 1.33065855503082 1.46539342403412 1.61216843128204 1.70761919021606 1.8088002204895 2.01547837257385 2.39052367210388 2.90906620025635 3.48885893821716 3.58678460121155 1.29888606071472 1.46723306179047 1.68604648113251 1.77670073509216 1.88480043411255 2.70032238960266 1.935262799263 1.99735164642334 2.20719599723816 2.52194309234619 2.7553927898407 2.87420701980591 2.95280909538269 3.03003072738647 3.09258937835693 3.16147923469543 3.22423410415649 3.29325127601624 3.38526964187622 3.44949150085449 3.5317907333374 3.61966633796692 3.71244025230408 3.81416869163513 3.92677593231201 4.05201292037964 4.68616580963135 5.62538719177246 6.65385007858276 9.33228969573975 9.10490608215332 6.97268295288086 6.72769546508789 4.0583872795105 4.06168460845947 4.11485433578491 4.1801495552063 4.24106359481812 4.30543422698975 4.37927293777466 4.58194446563721 4.78520345687866 4.92538166046143 5.13363313674927 5.54221105575562 6.65902090072632 8.19911575317383 9.69781017303467 10.2894439697266 5.57248020172119 5.81122779846191 6.1786642074585 6.69152450561523 7.69747591018677 9.2471284866333 11.405722618103 6.59504556655884 0.853006601333618 0.853452622890472 0.929247736930847 1.10436809062958 1.20425426959991 1.28336501121521 1.37641513347626 1.5228099822998 1.93874096870422 2.45385265350342 3.37986636161804 4.22637319564819 4.69776916503906 5.16812181472778 6.39563941955566 7.8527946472168 10.1541528701782 6.03832674026489 5.25853776931763 5.64710474014282 7.04049968719482 8.91132640838623 9.39685535430908 8.04531288146973 3.4409499168396 1.04684221744537 -2.37329363822937 -0.924426853656769 -3.14084076881409 -3.15174150466919 -2.97157669067383 -2.71057891845703 -2.41367125511169 -2.04588913917542 -1.78825986385345 -1.60469126701355 -1.39443850517273 -1.19397234916687 -1.03981494903564 -0.87146258354187 -0.695585131645203 -0.518840968608856 -0.355419874191284 -0.131882876157761 0.146685987710953 0.349707156419754 0.464270919561386 0.623660266399384 1.02378189563751 1.8323792219162 2.38245749473572 1.36450362205505 1.46733331680298 1.5941002368927 1.74321329593658 1.91405725479126 2.1297070980072 2.35440015792847 2.50670146942139 2.68040323257446 2.83989953994751 2.99173974990845 3.13190126419067
0.607661306858063 0.747294127941132 0.876471996307373 0.990051209926605 1.12654519081116 1.31130707263947 1.49807798862457 1.74851822853088 2.79256343841553 2.32618689537048 2.35859966278076 2.53061842918396 2.73414421081543 3.01450610160828 3.41361784934998 2.76998138427734 2.71889972686768 2.40000796318054 0.803846836090088 -0.100070707499981 -0.0932488143444061 -0.0705152004957199 -0.0234371460974216 0.0493071228265762 0.144671678543091 0.374248057603836 0.236370801925659 0.37958562374115 0.507049858570099 0.565402448177338 0.671143710613251 0.694185018539429 0.747669994831085 0.807702541351318 0.839857518672943 0.858954310417175 0.880364656448364 0.918486773967743 0.960940897464752 1.01380908489227 1.07044506072998 1.15945219993591 1.21459770202637 1.26106250286102 1.29807388782501 1.32578206062317 1.35170102119446 1.40009558200836 1.48031771183014 1.58038628101349 1.73997926712036 1.98733413219452 1.81351971626282 1.61528277397156 1.73514425754547 1.85348737239838 2.18218684196472 2.43450021743774 2.57249999046326 2.07056784629822 2.16862535476685 2.36233639717102 2.50392365455627 2.64613938331604 2.73409295082092 2.80692553520203 2.86962270736694 2.9138617515564 2.93478870391846 2.98660492897034 3.05664205551147 3.15791511535645 3.27216029167175 3.35724186897278 3.4506242275238 3.54765892028809 3.65354037284851 3.77527713775635 3.91201758384705 4.73249101638794 6.32905769348145 9.03463172912598 10.7877244949341 3.97717094421387 4.03585433959961 4.16843414306641 4.29278898239136 4.4372615814209 4.44911670684814 4.45098495483398 4.59419441223145 4.73641109466553 5.04422044754028 5.3883957862854 5.65463495254517 5.94894170761108 6.48327350616455 7.35377311706543 8.82253646850586 10.6369285583496 11.6416645050049 6.50302648544312 6.56870412826538 4.68463230133057 4.00746583938599 4.31238842010498 4.8526873588562 6.37484455108643 1.97530007362366 0.698096930980682 0.737606585025787 0.855955958366394 1.21885466575623 2.3789529800415 2.89618110656738 3.34593462944031 0.998486936092377 1.2985532283783 1.6423214673996 2.53134799003601 3.23028326034546 3.8523850440979 4.83225059509277 6.08998107910156 7.73671197891235 11.2405529022217 5.95801639556885 3.49735903739929 3.7672758102417 4.83618927001953 7.91599130630493 10.3469343185425 6.02742481231689 6.09622097015381 2.57943916320801 -1.44941210746765 -2.75005626678467 -1.64638733863831 -2.87141513824463 -2.68601202964783 -2.48264598846436 -2.14722585678101 -1.86757874488831 -1.73888254165649 -1.60009634494781 -1.33796834945679 -1.11732113361359 -0.919547855854034 -0.743946850299835 -0.60261207818985 -0.431578993797302 -0.259991556406021 -0.0355501137673855 0.28025409579277 0.503940165042877 0.624091863632202 0.814752042293549 0.945114493370056 1.3887425661087 1.97716927528381 1.53990685939789 1.84206962585449 2.16092967987061 2.29005026817322 2.4566445350647 2.63747668266296 2.81700682640076 2.99285674095154 3.16234874725342 3.33341217041016 3.50548005104065 3.68324422836304
0.587921321392059 0.777152001857758 0.906657636165619 0.994897186756134 1.14518547058105 1.36446738243103 1.58242106437683 1.79847097396851 2.24586796760559 3.26443552970886 2.36031103134155 2.50785660743713 2.72657322883606 2.95110297203064 3.04955148696899 3.29656147956848 3.31361436843872 2.39857602119446 1.17414999008179 0.0366234704852104 -0.120937950909138 -0.110249184072018 -0.0913324728608131 -0.0389821603894234 0.0482929386198521 0.159301698207855 0.200343117117882 0.367274314165115 0.450150430202484 0.509807825088501 0.5919269323349 0.641114294528961 0.713016748428345 0.743135452270508 0.765795648097992 0.791444480419159 0.827355742454529 0.885857105255127 0.949544191360474 1.01202833652496 1.06463062763214 1.10310924053192 1.1486428976059 1.20762479305267 1.30156183242798 1.61223661899567 1.31995165348053 1.40411841869354 1.4918429851532 1.56816530227661 1.6678980588913 1.7839093208313 2.00333142280579 2.58632349967957 1.89026820659637 1.99458920955658 2.40546250343323 2.96491765975952 2.8793261051178 2.44449877738953 2.50321626663208 2.61160826683044 2.77467703819275 2.93626761436462 3.04018044471741 3.12409019470215 3.21033000946045 3.25722408294678 3.27464246749878 3.3673632144928 3.4085214138031 3.49191689491272 3.64339637756348 3.84110832214355 3.96216630935669 4.09166526794434 4.23154020309448 4.39197826385498 4.57189273834229 4.77892112731934 4.99996137619019 5.17541694641113 9.05940437316895 5.23149013519287 5.19299173355103 5.50174570083618 5.75090456008911 6.01839113235474 7.43667125701904 6.02677822113037 6.18218660354614 6.52415990829468 6.96139907836914 7.4931116104126 8.06285667419434 8.64551544189453 9.35622310638428 10.357985496521 11.6633901596069 13.2453861236572 14.8873691558838 16.1020469665527 20.2135543823242 6.02000761032104 2.48953866958618 -0.0224400348961353 0.0532563365995884 0.184678256511688 0.266022235155106 0.273402810096741 0.276844322681427 0.529439568519592 0.87315160036087 2.36405229568481 3.29596924781799 5.83783054351807 0.742683231830597 0.752506971359253 0.975242376327515 1.63302981853485 2.13443875312805 2.95698857307434 3.98840832710266 5.25997114181519 6.8235182762146 8.15104866027832 8.7571907043457 2.14441180229187 2.14847636222839 3.38076210021973 5.04007577896118 6.75705099105835 7.07349634170532 6.88033533096313 5.63004779815674 0.497061371803284 -2.78680157661438 -2.60690546035767 -2.45335650444031 -2.34431123733521 -2.1580171585083 -1.93432104587555 -1.73306632041931 -1.56919658184052 -1.3990250825882 -1.17015790939331 -0.931395590305328 -0.749493479728699 -0.579157650470734 -0.426503717899323 -0.370505571365356 -0.193890601396561 0.0398336574435234 0.312605053186417 0.590558528900146 0.79938280582428 0.937895655632019 1.04902279376984 1.19244360923767 1.38473689556122 1.55740308761597 2.28826475143433 2.44126677513123 2.55041337013245 2.70239520072937 2.86782240867615 3.04500794410706 3.23447680473328 3.39767670631409 3.54880809783936 3.71085667610168 3.88974142074585
0.624289810657501 0.805934965610504 0.947684288024902 1.04764795303345 1.18829166889191 1.37304222583771 1.59126389026642 1.84612727165222 2.18937945365906 3.86210346221924 2.40392827987671 2.45241260528564 2.630774974823 2.92289328575134 3.16269493103027 3.27658772468567 3.47594308853149 2.58572363853455 1.45642900466919 0.400283545255661 -0.13921332359314 -0.132098779082298 -0.117094278335571 -0.0129485856741667 0.0362807735800743 0.101670444011688 0.165811389684677 0.284523069858551 0.368214279413223 0.446275532245636 0.495208263397217 0.570739507675171 0.641903102397919 0.65967857837677 0.685545444488525 0.732534289360046 0.790885090827942 0.848808705806732 0.889061868190765 0.924496531486511 0.959712147712708 0.996469676494598 1.05652976036072 1.11205589771271 1.17040407657623 1.24355292320251 1.3518385887146 1.44866120815277 1.4101095199585 1.46375715732574 1.54592192173004 1.73393893241882 2.18295073509216 1.98475539684296 1.7729526758194 1.95676851272583 2.5531370639801 2.79358553886414 3.00115585327148 2.79880356788635 2.84553050994873 2.95167255401611 3.12674736976624 3.26350474357605 3.36700582504272 3.46894359588623 3.54733967781067 4.13538217544556 4.27608823776245 3.57229042053223 3.58573889732361 3.69427800178528 3.86139106750488 4.19520950317383 4.38072395324707 4.5296778678894 4.68825721740723 4.8587498664856 5.04979801177979 5.27303028106689 5.53322982788086 5.73931169509888 5.97163772583008 6.18273448944092 6.34803771972656 6.55140924453735 6.77735280990601 7.13621616363525 7.37033796310425 7.46970510482788 7.51013708114624 7.838059425354 8.31301403045654 8.85190105438232 9.37765407562256 9.96816253662109 10.7654542922974 11.8431053161621 13.3692359924316 15.2282476425171 17.3705463409424 20.1810188293457 26.8271217346191 11.1017665863037 4.22483062744141 -0.965251445770264 -0.848364949226379 -0.478754967451096 -0.154161870479584 1.21788513660431 -0.12901996076107 0.0189518611878157 0.417303532361984 1.26660251617432 2.68380236625671 4.67760324478149 0.590167582035065 0.599972069263458 0.700593769550323 0.986016452312469 1.20880162715912 1.43287527561188 2.34237241744995 3.44153523445129 4.69052124023438 6.07995891571045 5.60420656204224 1.49744355678558 1.74806785583496 2.53143191337585 3.65338826179504 4.72738647460938 5.85417032241821 7.14980363845825 8.68309116363525 2.16111183166504 -2.48413944244385 -2.30583786964417 -2.10765790939331 -1.87626504898071 -1.88004398345947 -1.71738624572754 -1.54570889472961 -1.32741689682007 -1.10779654979706 -0.890264451503754 -0.689695775508881 -0.516377091407776 -0.407052963972092 -0.291230082511902 -0.228749960660934 -0.140036910772324 0.0913082137703896 0.355051070451736 0.631179571151733 0.873538792133331 1.06175112724304 1.17964553833008 1.33325147628784 1.52916491031647 1.73645615577698 2.25696849822998 2.50687003135681 2.58112978935242 2.69679093360901 2.84150528907776 3.00263905525208 3.18099427223206 3.3486385345459 3.49488425254822 3.66028499603271 3.83199095726013
0.65244334936142 0.840940058231354 0.99823397397995 1.10724413394928 1.23658764362335 1.38177788257599 1.56544065475464 1.83015358448029 2.14173889160156 3.64934492111206 2.59176301956177 2.44258332252502 2.56137084960938 2.80209946632385 3.06540679931641 3.25892090797424 3.53609609603882 2.67798209190369 1.59881901741028 0.668426632881165 -0.157613053917885 -0.0707197412848473 -0.10879722237587 -0.00581496162340045 0.0760638490319252 0.133371382951736 0.193686127662659 0.273167937994003 0.29644313454628 0.435011595487595 0.480731070041656 0.506009936332703 0.567235350608826 0.626860558986664 0.630381107330322 0.669967830181122 0.728235423564911 0.753932178020477 0.79023939371109 0.828944325447083 0.875542283058167 0.934067130088806 0.979338586330414 1.01838481426239 1.08275747299194 1.14875853061676 1.21720921993256 1.30212259292603 2.59650707244873 1.78244566917419 1.31643617153168 1.33720076084137 1.53433561325073 2.21162271499634 1.75105929374695 1.92647755146027 2.44478750228882 2.7895975112915 2.80859351158142 2.81069827079773 2.8425714969635 2.94129467010498 3.08205771446228 3.23064589500427 3.34138488769531 3.42491364479065 3.50544214248657 3.8001446723938 3.93803024291992 3.57191205024719 3.54008221626282 3.57784509658813 3.73088264465332 4.15686511993408 4.37765502929688 4.52436637878418 4.68162822723389 4.8472146987915 5.04478645324707 5.26778888702393 5.5233416557312 5.75186014175415 5.96561241149902 6.19371843338013 6.40291357040405 6.63614130020142 6.92687177658081 7.1717848777771 7.26310968399048 7.265869140625 7.69602346420288 8.04755401611328 8.34584808349609 8.98937797546387 9.48173236846924 10.0784025192261 10.8762092590332 11.8329591751099 13.1888046264648 14.8190612792969 15.5839176177979 16.5912132263184 23.5273456573486 16.4222393035889 2.69045400619507 0.646381676197052 -1.3870815038681 -1.03293681144714 -0.561545550823212 -0.329914718866348 -0.277980208396912 -0.195755735039711 0.095821775496006 1.0478663444519 2.24443984031677 4.55974578857422 1.68018186092377 0.206436187028885 0.349025934934616 0.488947719335556 0.450429737567902 0.496290981769562 1.2732982635498 2.67058086395264 4.01962518692017 6.84866523742676 5.1660795211792 0.61641138792038 1.03110718727112 1.92508029937744 2.34535551071167 3.25133109092712 4.16962146759033 4.87871313095093 5.79659461975098 3.42717528343201 -2.22627305984497 -2.05609011650085 -1.90820789337158 -1.62375676631927 -1.68176710605621 -1.50969135761261 -1.33362996578217 -1.09748494625092 -0.794719159603119 -0.519536435604095 -0.335157334804535 -0.174503237009048 -0.09187101572752 -0.0438916981220245 -0.0197743289172649 0.0231756251305342 0.237425029277802 0.472209393978119 0.725121915340424 0.98125284910202 1.18100261688232 1.34824550151825 1.51519417762756 1.72075700759888 1.93908655643463 2.27625155448914 2.42508625984192 2.4875590801239 2.56529211997986 2.6828248500824 2.82815790176392 2.98937797546387 3.15186715126038 3.30298662185669 3.46362066268921 3.63355278968811
0.64553689956665 0.737647712230682 1.01705694198608 1.17456221580505 1.29076743125916 1.4093964099884 1.56322407722473 1.78042697906494 2.06625652313232 2.95495843887329 2.90276217460632 2.44397807121277 2.48666167259216 2.63473773002625 2.89466857910156 3.22622036933899 3.5956289768219 2.6060631275177 1.78088986873627 0.871901988983154 0.315592527389526 -0.112807258963585 -0.100294105708599 -0.0167002473026514 0.0491654351353645 0.0897892937064171 0.160373643040657 0.236780822277069 0.261178582906723 0.351269960403442 0.450683236122131 0.48805233836174 0.527957260608673 0.580604076385498 0.863844215869904 0.660995721817017 0.689899861812592 0.761339902877808 0.842376410961151 0.922274231910706 0.979511260986328 1.05486500263214 1.13129270076752 1.22601962089539 1.33949613571167 1.48574912548065 1.74003899097443 2.10285830497742 2.7212917804718 3.68104338645935 2.03251695632935 2.174889087677 2.41384863853455 1.69913959503174 1.68080425262451 1.79758310317993 1.99820482730865 2.30049109458923 2.41018056869507 2.42930936813354 2.45163869857788 2.5041606426239 2.58382105827332 2.70256543159485 2.81715226173401 2.90230894088745 3.01144790649414 3.2791543006897 3.32812738418579 3.35252356529236 2.95683670043945 2.98351573944092 3.10915231704712 3.48454284667969 3.67831158638 3.78526592254639 3.90408563613892 4.03882360458374 4.19138050079346 4.35917901992798 4.55206394195557 4.77615976333618 4.95061111450195 5.14030456542969 5.58814573287964 6.66784477233887 8.43907833099365 11.0451412200928 9.99002456665039 5.21666955947876 5.4704327583313 5.79059314727783 5.94996786117554 6.46496486663818 6.99817132949829 7.52041006088257 8.0349817276001 8.57823276519775 9.79511737823486 12.618824005127 15.2566938400269 9.09316349029541 10.2494220733643 13.4466543197632 4.55498123168945 4.67972040176392 -0.592921197414398 -1.26611852645874 -0.962220728397369 -0.641619384288788 -0.486436486244202 -0.0400552600622177 0.407400250434875 1.06756472587585 1.76745641231537 2.94490385055542 2.47928547859192 0.629745423793793 1.76215207576752 3.83863186836243 -0.476338356733322 -0.414377629756927 -0.0331166572868824 0.327849715948105 1.21613740921021 2.69349360466003 3.75147986412048 0.419830560684204 0.790216445922852 1.49149930477142 1.88217091560364 2.73014760017395 3.36366629600525 5.24685192108154 3.03214716911316 1.09684896469116 -1.5938915014267 -1.18216526508331 -0.666814923286438 -0.662799298763275 -1.12742304801941 -0.817818641662598 -1.10547542572021 -0.778351008892059 -0.376612961292267 -0.0758438259363174 0.098665326833725 0.235112398862839 0.328334599733353 0.396633058786392 0.42982816696167 0.466806083917618 0.523342192173004 0.651258111000061 0.858457088470459 1.09982848167419 1.28773415088654 1.52195537090302 1.83420181274414 1.98654592037201 2.13752007484436 2.3026168346405 2.36483883857727 2.42624545097351 2.5002646446228 2.6091046333313 2.76197123527527 2.92231726646423 3.07629609107971 3.22433733940125 3.37112498283386 3.53379797935486
0.702156782150269 0.83323872089386 1.02412033081055 1.17604541778564 1.35039794445038 1.48882853984833 1.62255775928497 1.80263757705688 2.04142808914185 2.42107439041138 3.15727925300598 2.46966767311096 2.49230265617371 2.53346562385559 2.65979886054993 2.87676453590393 3.08907794952393 3.19042658805847 2.59198093414307 0.979913651943207 0.571353733539581 -0.0486582554876804 -0.0616919882595539 -0.00404434371739626 0.0333746261894703 0.0641312897205353 0.123764961957932 0.186330944299698 0.236753344535828 0.320789813995361 0.414579927921295 0.463029265403748 0.498095989227295 0.531370937824249 0.574668049812317 0.66328352689743 0.715732097625732 0.758269131183624 0.816870629787445 0.899581491947174 0.986232876777649 1.07977485656738 1.15492105484009 1.26014876365662 1.38091969490051 1.67684960365295 1.9642481803894 2.17737174034119 2.10897445678711 2.36739325523376 3.03769135475159 3.03158855438232 1.22351765632629 1.31435322761536 1.50394558906555 1.62464666366577 1.70748364925385 1.77308416366577 1.87933146953583 1.99484169483185 2.10373210906982 2.15427780151367 2.11482882499695 2.18757653236389 2.32655382156372 2.43103170394897 3.10806250572205 3.5861451625824 3.59377861022949 2.50748157501221 2.4321117401123 2.47302627563477 2.63188004493713 2.95847797393799 3.09472036361694 3.1890435218811 3.28448104858398 3.38789296150208 3.5138726234436 3.65233159065247 4.03767347335815 4.63873815536499 5.24543714523315 5.95756816864014 6.93118762969971 8.36430644989014 11.6852159500122 14.4285459518433 9.09736728668213 3.68723034858704 3.7023766040802 3.85172867774963 3.97096467018127 4.33839559555054 4.75754070281982 5.29951667785645 5.64219188690186 5.95635652542114 6.50371408462524 7.6997766494751 9.99350833892822 6.87115240097046 4.60544395446777 5.02871084213257 5.76720714569092 6.58412647247314 5.85810852050781 -0.526702046394348 -1.0556253194809 -0.857922732830048 -0.388672769069672 -0.0672788470983505 0.290898680686951 0.806548357009888 1.32974469661713 1.6531845331192 2.19805073738098 1.11279845237732 0.443721204996109 3.5221471786499 -0.856551170349121 -0.829051613807678 -0.6187584400177 -0.430578410625458 -0.089681550860405 0.36249515414238 0.737762331962585 0.902213931083679 1.23870575428009 1.77849936485291 2.27321314811707 3.91666579246521 4.97775888442993 7.8479151725769 2.59405326843262 -0.610319912433624 -0.0608888380229473 0.466860413551331 0.930039823055267 -0.451725691556931 -0.822591960430145 -0.726447284221649 -0.80566418170929 -0.311215817928314 0.149733677506447 0.509524464607239 0.632606148719788 0.715834259986877 0.812729477882385 0.912544131278992 0.981382846832275 1.02723455429077 1.0854160785675 1.16408002376556 1.24341309070587 1.34042847156525 1.42634093761444 1.71686494350433 2.10624194145203 2.26860880851746 2.31180047988892 2.3746612071991 2.43817567825317 2.50804376602173 2.59080290794373 2.70922493934631 2.86963868141174 3.03330659866333 3.20361804962158 3.36834144592285 3.53058886528015 3.67985367774963
0.808200240135193 0.993669152259827 1.06676590442657 1.20331931114197 1.2831369638443 1.47672772407532 1.64748549461365 1.82336914539337 2.04350805282593 2.35085487365723 3.17168784141541 2.57766675949097 2.64514327049255 2.67104411125183 2.73402571678162 2.86159181594849 3.06847620010376 3.47316646575928 3.27178812026978 1.28779280185699 0.61003577709198 0.406471401453018 0.00953436270356178 0.0514098033308983 0.0639174804091454 0.0886682271957397 0.13485811650753 0.194638356566429 0.271560430526733 0.342656850814819 0.364529460668564 0.454125553369522 0.525699496269226 0.563739359378815 0.624415457248688 0.7058145403862 0.787840843200684 0.88450026512146 1.00821232795715 1.15147686004639 1.323765873909 1.52712440490723 1.72185707092285 1.93818557262421 2.20638489723206 2.46950912475586 2.67328882217407 2.77069568634033 3.23063230514526 4.09671878814697 5.82761001586914 5.26035737991333 1.27107727527618 1.36455142498016 1.45082271099091 1.49301409721375 1.51004815101624 1.57142221927643 1.69518303871155 2.1381356716156 3.07982921600342 4.21037435531616 1.8558098077774 1.87814223766327 2.0035936832428 2.73429775238037 3.78903293609619 4.59583759307861 4.62471914291382 2.06132340431213 2.06713032722473 2.15490078926086 2.54425430297852 3.12058615684509 3.32567763328552 3.54381370544434 3.78282713890076 4.06311798095703 4.41376256942749 4.84235382080078 5.35482454299927 5.99981832504272 6.83793067932129 7.84084320068359 9.23875522613525 11.2979488372803 16.0637321472168 15.8847618103027 11.8462915420532 6.47094297409058 2.26358127593994 2.41096210479736 2.78323459625244 3.19020581245422 3.57579207420349 3.89991545677185 4.19517087936401 4.80090141296387 4.06563568115234 3.99329733848572 4.2379002571106 4.55089569091797 4.77088689804077 5.13386583328247 5.53901100158691 5.3061785697937 4.88404273986816 0.451957911252975 -0.846343338489532 -0.818839967250824 -0.7328080534935 -0.697644293308258 -0.574745714664459 -0.06324752420187 0.348389983177185 0.420094639062881 0.805417478084564 1.53991878032684 -0.609674692153931 0.110840171575546 0.87343156337738 -0.348963707685471 -0.58408534526825 -0.474631875753403 -0.352173775434494 0.17270764708519 0.469258099794388 0.854470729827881 1.34565150737762 1.7403861284256 2.14532470703125 3.24265933036804 5.43922853469849 4.79923295974731 3.7739360332489 2.56842374801636 0.620804369449615 0.663543701171875 0.996437788009644 1.22109389305115 1.55294120311737 -0.919171571731567 -0.409122258424759 0.441728949546814 1.00810313224792 1.28372871875763 1.39362144470215 1.50104379653931 1.61090111732483 1.73564577102661 1.85523736476898 1.93727898597717 2.02945709228516 2.11691331863403 2.18744683265686 2.27239727973938 2.3515100479126 2.40242314338684 2.47414112091064 2.54417777061462 2.61106967926025 2.69910836219788 2.79819989204407 2.8962881565094 3.01297640800476 3.18348336219788 3.43188333511353 3.72391057014465 4.03652858734131 4.37062501907349 4.69897365570068 5.01827239990234
1.01096320152283 1.08075284957886 1.13599014282227 1.23933732509613 1.25023925304413 1.51128137111664 1.6728367805481 1.74808025360107 2.0028235912323 2.3012363910675 2.89941024780273 2.55702304840088 2.65132617950439 2.71902465820312 2.76022887229919 2.81697750091553 3.03324604034424 3.45824933052063 3.56559824943542 1.58399534225464 0.797400414943695 0.7711501121521 0.0666512846946716 0.0900686159729958 0.0957547053694725 0.114544548094273 0.154009833931923 0.202563181519508 0.261499792337418 0.328351259231567 0.379584610462189 0.452649295330048 0.53695148229599 0.602025032043457 0.629840552806854 0.650445580482483 0.697608113288879 0.751246750354767 0.784211397171021 0.833976626396179 0.985793173313141 1.53088867664337 1.6679619550705 1.80844664573669 1.8508574962616 1.87648916244507 1.88614571094513 2.18576884269714 2.49479150772095 2.82405233383179 3.3979504108429 4.92515850067139 1.90111672878265 1.96699261665344 2.02314233779907 2.07407569885254 2.14557600021362 2.20639491081238 2.27047443389893 2.70226788520813 3.66550064086914 5.86913919448853 3.5167989730835 2.2943058013916 2.44389009475708 2.66823196411133 3.68001413345337 5.37772083282471 4.31072664260864 2.79562330245972 2.87839007377625 3.12231755256653 3.75789904594421 4.39601945877075 4.67301273345947 4.97735548019409 5.31769132614136 5.71122884750366 6.26705884933472 6.98188257217407 7.90947341918945 9.09043025970459 10.6727752685547 12.686577796936 15.5132236480713 20.1709327697754 29.1501235961914 23.393367767334 5.7153148651123 6.0311803817749 0.628742218017578 0.757319390773773 1.35258293151855 1.83532047271729 2.26054692268372 2.711266040802 3.41436195373535 3.91875052452087 3.7801787853241 2.71530604362488 2.95145535469055 3.41057348251343 3.9389545917511 4.45692491531372 5.05117845535278 5.38133573532104 4.93825674057007 3.07551836967468 0.171273320913315 -0.238140001893044 0.629035174846649 -0.659296810626984 -0.606730341911316 -0.481560409069061 -0.316891729831696 -0.216101437807083 -0.207494229078293 -0.0647392347455025 0.0588147379457951 0.536673247814178 1.31496977806091 2.5340678691864 -0.199372410774231 -0.0442983210086823 0.221620053052902 0.530318319797516 0.970949590206146 1.4114443063736 1.85295569896698 2.33933687210083 2.76036596298218 3.32049250602722 5.30850124359131 5.98723030090332 3.62220191955566 4.67940807342529 2.95210838317871 3.20905566215515 4.25023126602173 5.73181486129761 7.14441061019897 -0.793338239192963 -0.0760365277528763 0.938542127609253 1.41306126117706 1.76733195781708 1.89922451972961 2.02025985717773 2.14402270317078 2.26634788513184 2.41249990463257 2.55144715309143 2.64985179901123 2.73770356178284 2.80205798149109 2.86772584915161 2.91161227226257 2.97584342956543 3.0497841835022 3.1316180229187 3.21868276596069 3.29988384246826 3.39863419532776 3.47165942192078 3.56296157836914 3.71339988708496 3.92873620986938 4.21935939788818 4.55367183685303 4.97811460494995 5.42483711242676 5.85936689376831
1.86649465560913 1.11361122131348 1.12312245368958 1.29020953178406 1.41713058948517 1.59395158290863 1.71179354190826 1.83523452281952 1.87246692180634 2.18813562393188 2.5199568271637 2.44504070281982 2.55377197265625 2.64265298843384 2.67912983894348 2.72611665725708 2.88293242454529 3.25303173065186 3.52318143844604 2.13575291633606 0.957107305526733 0.979381024837494 0.542492032051086 0.227917090058327 0.234446868300438 0.254473567008972 0.295069694519043 0.345544934272766 0.404148459434509 0.467425286769867 0.53907436132431 0.623844802379608 0.690798759460449 0.850159108638763 0.914107441902161 0.939899027347565 1.00552368164062 1.06668293476105 1.10506844520569 1.15357351303101 1.20807659626007 1.76086568832397 2.05807662010193 2.19042611122131 2.24622178077698 2.29207062721252 2.33591055870056 2.36549234390259 2.40105795860291 2.42947220802307 2.44556498527527 2.45197749137878 2.47135138511658 2.52941250801086 2.60326075553894 2.68095874786377 2.90249156951904 3.44300293922424 4.03861713409424 4.94502258300781 6.63502931594849 9.06419372558594 9.58343315124512 2.7189633846283 2.89939475059509 3.18290185928345 3.53334379196167 4.77796268463135 4.38827896118164 3.70322275161743 3.86683559417725 4.15208387374878 4.745192527771 5.6005687713623 6.01975297927856 6.43835020065308 6.91436052322388 7.46896171569824 8.13960456848145 8.94216251373291 9.95410251617432 11.2332191467285 12.8715267181396 15.2534141540527 18.7072277069092 24.1860733032227 32.1973037719727 34.059757232666 13.4107522964478 5.24750232696533 -0.397347956895828 -0.336501985788345 -0.236749395728111 0.430378675460815 0.861052274703979 1.32517969608307 2.00455713272095 2.33336472511292 2.42011451721191 2.46403551101685 2.76135468482971 3.18964576721191 3.74446940422058 4.59859943389893 5.75986003875732 7.27542066574097 8.02179431915283 2.8513514995575 0.759622812271118 1.01288437843323 2.01426672935486 1.12858378887177 -0.762853384017944 -0.594628095626831 -0.342280983924866 -0.0850263386964798 0.00465053925290704 0.0559153258800507 0.129986003041267 0.174716934561729 0.272390455007553 0.791486620903015 0.993187606334686 0.199919581413269 0.471337497234344 0.675790250301361 1.08006191253662 1.67401564121246 2.31181335449219 2.80898833274841 3.31393599510193 3.82319116592407 4.23794269561768 5.27353000640869 6.41935062408447 4.53915357589722 4.33438777923584 5.12117290496826 6.39192008972168 8.07829666137695 9.37942314147949 -0.363566100597382 0.39406430721283 1.00159001350403 1.40509247779846 1.68969523906708 1.91633641719818 2.11540460586548 2.22387766838074 2.33642506599426 2.47193431854248 2.61472725868225 2.70887303352356 2.77422165870667 2.83718299865723 2.87106728553772 2.90588164329529 2.95578694343567 3.02262544631958 3.09848093986511 3.17162799835205 3.23143553733826 3.72987937927246 3.25356531143188 3.27006244659424 3.38909006118774 3.54399847984314 3.74927234649658 3.94766211509705 4.25282907485962 4.83927202224731 5.34916639328003
1.34291076660156 1.15961098670959 1.19303786754608 1.33891725540161 1.46440708637238 1.57134175300598 1.68565988540649 1.79430282115936 1.92492771148682 2.5002281665802 2.12560105323792 2.30870604515076 2.40399980545044 2.48942375183105 2.56269788742065 2.50204968452454 2.54975986480713 2.71193504333496 3.02987217903137 2.76199507713318 1.51439201831818 1.18851459026337 1.02396857738495 0.31520140171051 0.323108911514282 0.33275955915451 0.366747379302979 0.403106689453125 0.446014493703842 0.503252565860748 0.564873695373535 0.612841665744781 0.658306062221527 0.746037483215332 0.931498348712921 1.00203680992126 1.04183006286621 1.06945812702179 1.09781587123871 1.16032981872559 1.22197246551514 1.69021034240723 2.1988959312439 2.40232586860657 2.46309971809387 2.5180389881134 2.56318306922913 2.59473848342896 2.63361382484436 2.68302226066589 2.71722030639648 2.74720215797424 2.79355788230896 2.89499568939209 2.97213768959045 3.06474590301514 3.32773065567017 3.94593381881714 4.66857671737671 5.67094945907593 7.61378812789917 11.4787244796753 7.37334585189819 3.11013031005859 3.19216394424438 3.49038314819336 3.87091398239136 4.23787975311279 4.42423820495605 4.30122089385986 4.4918041229248 4.82829189300537 5.39723634719849 6.17163515090942 6.79112100601196 7.23397731781006 7.73665857315063 8.31009006500244 8.99480438232422 9.88443851470947 11.0043468475342 12.3875045776367 14.1652517318726 16.4556102752686 19.4878807067871 24.1903591156006 33.4157485961914 39.36767578125 22.5192165374756 8.86529636383057 -1.12977051734924 -1.11679482460022 -1.03178656101227 -0.63905280828476 -0.0155076812952757 0.462985664606094 1.23678493499756 2.07901072502136 2.69654059410095 3.12603807449341 3.70822167396545 4.362717628479 5.25145196914673 6.54140567779541 8.54108905792236 11.8080196380615 15.8683195114136 -0.749283671379089 -0.491474688053131 0.155372768640518 0.739695727825165 -0.207172393798828 -0.862956941127777 -0.720397651195526 -0.500092267990112 -0.142001867294312 0.0288501903414726 0.0967263132333755 0.181556642055511 0.246381223201752 0.320595800876617 0.402787834405899 0.462955862283707 0.531713545322418 0.545353651046753 0.668731153011322 0.95873612165451 1.46244144439697 2.14810037612915 2.79095411300659 3.29038453102112 3.69583630561829 4.10779476165771 4.64998817443848 5.7903881072998 4.79851388931274 4.6623969078064 5.41372585296631 6.61400699615479 9.09379768371582 7.47864103317261 0.758079409599304 0.367448955774307 0.60372132062912 0.979890108108521 1.33830046653748 1.73993170261383 2.13070631027222 2.38285255432129 2.4948046207428 2.61736583709717 2.73240995407104 2.81380796432495 2.88192868232727 2.93719983100891 2.96112442016602 2.98152160644531 3.0350124835968 3.52796077728271 4.34833002090454 5.582106590271 7.69206953048706 11.5359659194946 3.03844976425171 3.05283689498901 3.18520903587341 3.3304750919342 3.47416639328003 3.6145646572113 3.62165522575378 3.90990519523621 4.88991212844849
1.86482977867126 1.18326950073242 1.23518753051758 1.32987356185913 1.48572635650635 1.59131813049316 1.6824654340744 1.783034324646 1.99525904655457 2.284743309021 2.23547863960266 2.00666189193726 2.16782021522522 2.42052364349365 2.53619456291199 2.37659382820129 2.17776465415955 2.21451425552368 2.38995766639709 2.64575862884521 2.23365092277527 1.86682212352753 1.35590815544128 0.301074951887131 0.301260143518448 0.306311815977097 0.325091600418091 0.340873748064041 0.374177873134613 0.430075287818909 0.483697295188904 0.569011807441711 0.616969764232635 0.683375597000122 0.841654658317566 0.870493829250336 0.898361146450043 0.961300909519196 1.02433621883392 1.06192421913147 1.08870923519135 1.41994035243988 2.07592725753784 2.39177966117859 2.45612049102783 2.50660228729248 2.55129194259644 2.5904974937439 2.6325581073761 2.68179774284363 2.73571991920471 2.78599810600281 2.8394079208374 2.95617437362671 3.06929183006287 3.15686392784119 3.26592469215393 3.59563803672791 4.2988600730896 5.28782987594604 7.20913219451904 10.0564956665039 6.05833339691162 3.30677509307861 3.34808874130249 3.49257493019104 3.92498350143433 4.28634405136108 4.45126724243164 4.54678249359131 4.7539849281311 5.08984994888306 5.60802555084229 6.22160720825195 6.9181981086731 7.42484855651855 7.94879913330078 8.55236625671387 9.25660514831543 10.0936546325684 11.106273651123 12.3404760360718 13.8899936676025 16.045955657959 19.0449352264404 23.3061275482178 30.3274326324463 42.2194595336914 28.5372886657715 14.5879955291748 2.89440989494324 -1.36781573295593 -1.24770390987396 -1.03529477119446 -0.750356793403625 0.0266083143651485 0.575410425662994 1.32391691207886 2.13027191162109 2.79983019828796 3.52161645889282 4.22552347183228 5.04554843902588 6.11236619949341 7.57579469680786 10.3836603164673 15.0458555221558 8.3080415725708 -1.25744640827179 -1.21546304225922 -1.17765331268311 -1.05766725540161 -0.944824576377869 -0.735300600528717 -0.519659698009491 -0.306522816419601 0.0337024740874767 0.21599717438221 0.260348379611969 0.305107444524765 0.367907106876373 0.4227594435215 0.500019967556 0.559317231178284 0.594641506671906 0.67246150970459 0.820084095001221 1.12860465049744 1.6460177898407 2.2594473361969 2.732426404953 3.08160424232483 3.40038990974426 3.77580952644348 3.84624934196472 3.8467845916748 4.00443029403687 4.4505467414856 5.23727464675903 6.69377517700195 7.0848503112793 2.63817977905273 0.435891777276993 0.52214115858078 0.806639194488525 1.22589838504791 1.78008615970612 2.37878060340881 2.73822665214539 2.8740918636322 3.0432140827179 3.34381723403931 3.65470409393311 3.96854567527771 4.32268095016479 4.51101779937744 4.59892511367798 5.17489051818848 6.29041147232056 7.79723215103149 10.2388172149658 14.5560188293457 22.2961120605469 5.28865242004395 2.9537034034729 3.21355128288269 3.45733571052551 3.63735771179199 3.79775142669678 3.9184901714325 4.05567121505737 4.58912944793701
1.21109247207642 1.71710073947906 1.24167442321777 1.35120415687561 1.46708643436432 1.54506945610046 1.62159252166748 1.81770288944244 1.86402857303619 1.88671553134918 1.97022211551666 2.2024564743042 2.24448084831238 2.07557153701782 2.46228265762329 2.32599902153015 2.09433650970459 2.03974986076355 2.0826518535614 2.23416924476624 2.45201516151428 2.15663766860962 1.591188788414 0.854680120944977 0.157529085874557 0.16286712884903 0.165514633059502 0.165691658854485 0.176394805312157 0.225742280483246 0.250224530696869 0.313800662755966 0.418452203273773 0.492814630270004 0.541233122348785 0.589438199996948 0.578273952007294 0.621892154216766 0.682443380355835 0.722047746181488 0.743314564228058 1.02293884754181 1.80909991264343 2.19197750091553 2.36910104751587 2.4149706363678 2.45442628860474 2.49721574783325 2.53771662712097 2.59048104286194 2.66656804084778 2.73247575759888 2.79697775840759 2.87402176856995 3.03790950775146 3.13133859634399 3.22932076454163 3.32094693183899 3.41024088859558 4.01076555252075 5.28897762298584 7.22082901000977 6.36902952194214 3.44020581245422 3.52647733688354 3.6474871635437 3.92449593544006 4.13052606582642 4.33979892730713 4.57995700836182 4.86052989959717 5.17965602874756 5.58409070968628 6.08665561676025 6.63209533691406 7.07980298995972 7.56625699996948 8.10105037689209 8.73456478118896 9.5326623916626 10.4934978485107 11.6592969894409 13.1223011016846 14.9918231964111 17.3829402923584 21.2069606781006 27.3050441741943 36.7912559509277 33.2101516723633 17.9101276397705 8.50768375396729 0.746087670326233 0.769115090370178 -1.38741314411163 -1.1607438325882 -0.404740512371063 0.302349716424942 0.975152134895325 1.56974339485168 2.08272981643677 2.1242470741272 2.85006380081177 3.97754979133606 5.26889753341675 6.52057552337646 7.84780120849609 9.04427051544189 10.272066116333 8.95105361938477 -1.49949884414673 -1.45406115055084 -1.25294661521912 -0.990067362785339 -0.754224240779877 -0.58957713842392 -0.419808119535446 -0.0650009959936142 0.345935881137848 0.459363698959351 0.531913638114929 0.597213447093964 0.66163432598114 0.726244032382965 0.761316359043121 0.788326978683472 0.824146509170532 0.909138381481171 1.04533064365387 1.36303853988647 1.85103273391724 2.24868273735046 2.50835180282593 2.73550295829773 3.48919916152954 3.53345608711243 2.75044298171997 2.8837194442749 3.28667235374451 3.68092918395996 4.21594524383545 4.8356728553772 4.9212121963501 3.98275828361511 0.83804851770401 0.936208128929138 1.39126098155975 2.00893020629883 2.52099895477295 2.89849448204041 3.02421641349792 3.20150089263916 3.49233865737915 3.79241061210632 4.13805818557739 4.52277898788452 4.96119785308838 4.72946548461914 5.11648178100586 6.15909671783447 7.5467472076416 9.35344409942627 11.9551610946655 15.3038415908813 13.630220413208 3.07414627075195 3.13677835464478 3.33853197097778 3.56924200057983 3.78049612045288 3.94344449043274 4.13836860656738 4.40158367156982
1.20572400093079 1.29878389835358 1.32679307460785 1.46296262741089 1.59868252277374 1.61149883270264 1.65721893310547 1.91937077045441 1.71457314491272 1.80400109291077 1.95446515083313 2.26435780525208 2.74925231933594 3.25626564025879 2.06953930854797 2.23490595817566 2.19596385955811 2.02013349533081 1.85950517654419 1.89635467529297 2.06284976005554 2.23448300361633 1.96240627765656 1.20563733577728 0.178977698087692 0.18560291826725 0.155741587281227 0.106824032962322 0.0368750467896461 0.0604530051350594 0.0807721540331841 0.120387084782124 0.194435521960258 0.252309083938599 0.307419776916504 0.745486736297607 0.318297684192657 0.324435085058212 0.365174263715744 0.471533477306366 0.576626062393188 0.654559314250946 1.49616527557373 1.95216393470764 2.23452615737915 2.31762266159058 2.39392161369324 2.42986059188843 2.46160936355591 2.51278305053711 2.598881483078 2.68659949302673 2.7618362903595 2.84064292907715 2.95461273193359 3.10848927497864 3.18923258781433 3.26602482795715 3.35043144226074 3.45010137557983 3.56905126571655 4.61850309371948 4.63412380218506 3.58840870857239 3.6017792224884 3.7402195930481 3.90163230895996 4.01316976547241 4.19850492477417 4.48213577270508 4.83273315429688 5.21892690658569 5.60272693634033 6.0356593132019 6.44132328033447 6.84990310668945 7.31066274642944 7.82398748397827 8.42170238494873 9.11163139343262 9.95260143280029 10.9825420379639 12.216516494751 13.774676322937 16.0126991271973 18.9892482757568 23.9546203613281 32.4662132263184 35.503303527832 20.9597644805908 13.5313129425049 4.51074028015137 4.27640056610107 -1.32642483711243 -1.13958787918091 -0.577511966228485 0.548565089702606 1.3178483247757 1.88924324512482 2.31774806976318 2.24262285232544 2.52885961532593 3.94556212425232 5.65636920928955 7.47509860992432 9.09670162200928 10.8377017974854 12.0096216201782 14.5073137283325 -1.70738172531128 -1.5669025182724 -1.27797973155975 -1.0408478975296 -0.819426238536835 -0.706202626228333 -0.582537829875946 -0.341913759708405 0.025021743029356 0.232604444026947 0.39760422706604 0.530587494373322 0.644552648067474 0.71819931268692 0.773927390575409 0.841480255126953 0.939135193824768 1.02042329311371 1.09029603004456 1.24229776859283 1.52881896495819 1.83796548843384 2.03222990036011 2.33819580078125 3.26977300643921 3.95022559165955 2.12953853607178 2.25552701950073 2.61403107643127 3.09662771224976 3.50159072875977 3.90163683891296 4.5268611907959 4.961021900177 2.32696723937988 1.33992397785187 1.64905762672424 2.0707790851593 2.57106733322144 2.79847359657288 2.95200824737549 3.03204941749573 3.10607671737671 3.18250846862793 3.25640344619751 3.48595881462097 3.8471314907074 4.17122936248779 3.69342637062073 4.09797477722168 5.11879873275757 6.44466924667358 8.2194242477417 10.3078384399414 12.5155086517334 4.55595874786377 3.28201270103455 3.32169675827026 3.44543218612671 3.63577318191528 3.78641510009766 3.95431923866272 4.17001008987427
1.21099710464478 1.28533339500427 1.36045575141907 2.81930756568909 4.05170392990112 1.46392667293549 2.04773354530334 1.65338361263275 1.71430540084839 1.84557831287384 2.01856279373169 2.253826379776 2.56889629364014 2.71721649169922 2.79267239570618 2.42328476905823 2.08864784240723 2.15895652770996 1.7653728723526 1.64232671260834 1.72814655303955 1.88442516326904 1.86263287067413 1.38650357723236 0.745992064476013 0.513746201992035 0.952805519104004 -0.0359164625406265 -0.0330079086124897 -0.0280969440937042 -0.0172509010881186 0.00955451186746359 0.0428803004324436 0.0896994322538376 0.304655432701111 0.553200781345367 0.534023344516754 0.138386189937592 0.171612337231636 0.314514756202698 0.452065676450729 0.55974155664444 1.23497784137726 1.74143767356873 2.03466629981995 2.13477778434753 2.29811143875122 2.33912563323975 2.37065434455872 2.41281604766846 2.49579334259033 2.60188627243042 2.69563293457031 2.79176115989685 2.90404462814331 3.03793907165527 3.12018823623657 3.20780825614929 3.28218507766724 3.37717509269714 3.49481177330017 3.56911993026733 4.50190210342407 3.57017159461975 3.61374664306641 3.74056601524353 3.91132235527039 4.01882457733154 4.16636943817139 4.45307493209839 4.81027603149414 5.20251512527466 5.51792764663696 5.80976247787476 6.12202739715576 6.45698547363281 6.82947301864624 7.30809307098389 7.88388872146606 8.53815841674805 9.29098224639893 10.2425270080566 11.4205951690674 12.8779497146606 14.7872457504272 17.5778331756592 21.5373554229736 29.5774154663086 38.1008605957031 22.9146118164062 14.0467596054077 6.87626934051514 8.25450706481934 -1.22877097129822 -1.06500804424286 -1.01252281665802 0.245736092329025 1.04959845542908 1.77019417285919 2.36387586593628 2.79976201057434 3.42132234573364 4.3378438949585 5.71321630477905 7.55124473571777 9.35504722595215 11.3789863586426 12.9946775436401 14.9167108535767 -1.77643096446991 -1.65146911144257 -1.34876048564911 -1.09400987625122 -0.877871632575989 -0.781394958496094 -0.697757124900818 -0.594737827777863 -0.303235203027725 -0.0981654152274132 0.0131000056862831 0.249445363879204 0.466588377952576 0.590621471405029 0.6993128657341 0.835889577865601 0.958427011966705 1.0419579744339 1.11254215240479 1.19748651981354 1.33652031421661 1.49256992340088 1.60855233669281 1.69671475887299 2.01017379760742 3.72970271110535 2.31742072105408 1.94013833999634 2.17999267578125 2.51993632316589 2.81120610237122 3.15221977233887 3.335932970047 3.67837715148926 3.8035991191864 1.55579090118408 1.77366352081299 1.94708001613617 2.37712240219116 2.64406585693359 2.79702520370483 2.97637486457825 3.05363798141479 3.12354826927185 3.1935408115387 3.26762914657593 3.34137892723083 3.38927888870239 3.40703964233398 3.45048785209656 3.54421734809875 3.84681868553162 4.65149784088135 5.93231296539307 9.1233377456665 4.91597843170166 3.58356189727783 3.82620215415955 3.69573378562927 3.73244571685791 3.90865159034729 4.05760860443115 4.15857791900635
1.18904948234558 1.26004099845886 1.40357267856598 2.69371175765991 1.61168158054352 1.61258769035339 1.69747459888458 1.75524640083313 1.82111465930939 1.92363560199738 2.07100820541382 2.28755974769592 2.48322033882141 2.82442474365234 2.50336861610413 2.60686063766479 2.92581582069397 2.11010670661926 1.87629234790802 1.54965150356293 1.36408269405365 1.39472234249115 1.48431873321533 1.41806745529175 0.994075238704681 1.08554911613464 1.2056782245636 -0.0652009546756744 -0.0858364403247833 -0.0790970548987389 -0.0687642991542816 -0.0576712004840374 -0.0448798835277557 -0.028222780674696 0.19347120821476 0.425130486488342 0.490272670984268 0.385271489620209 -0.00530705694109201 0.0277797430753708 0.100775539875031 0.203653186559677 0.820654153823853 1.49236166477203 1.81710934638977 1.92325329780579 2.0413601398468 2.08981108665466 2.12842011451721 2.16494822502136 2.23894691467285 2.34274911880493 2.45055532455444 2.55276656150818 2.65990233421326 2.76504802703857 2.83836841583252 2.9102041721344 2.98944973945618 3.12038421630859 3.14917469024658 3.19992542266846 3.21306800842285 3.22953629493713 3.25221180915833 3.39550161361694 3.58514475822449 3.73846888542175 3.88964915275574 4.128830909729 4.45645141601562 4.78084659576416 5.0233416557312 5.27922296524048 5.55648899078369 5.8956298828125 6.28722715377808 6.73957347869873 7.26156139373779 7.86521005630493 8.58599472045898 9.42916584014893 10.4926605224609 11.8660402297974 13.5669002532959 15.8503322601318 19.5286026000977 25.200122833252 36.0771522521973 29.0598659515381 15.1398468017578 5.53864574432373 5.72059631347656 0.842142641544342 1.32285451889038 -1.01598703861237 -0.338008493185043 0.674857497215271 1.54964530467987 2.31023359298706 3.03063797950745 3.98993968963623 4.75199317932129 5.63438177108765 7.34281063079834 9.90319538116455 11.4126749038696 13.2857685089111 14.6607685089111 -1.00961601734161 -1.71920371055603 -1.42778182029724 -1.16265690326691 -0.936624109745026 -0.84421044588089 -0.800636410713196 -0.719178795814514 -0.555306077003479 -0.368560642004013 -0.198740854859352 0.0368112251162529 0.284596830606461 0.45818954706192 0.553236842155457 0.736800193786621 0.864718914031982 0.955678403377533 1.03076696395874 1.08648455142975 1.12612414360046 1.20346891880035 1.26624262332916 1.34048783779144 1.53061819076538 1.71145665645599 1.74739766120911 1.75355112552643 1.85577476024628 2.04729700088501 2.25397658348083 2.51727080345154 2.64938926696777 2.82896947860718 3.20896053314209 1.81638550758362 1.63783037662506 1.77571296691895 2.12573552131653 2.42651534080505 2.70352149009705 2.92778611183167 3.00029468536377 3.06939005851746 3.13782858848572 3.21520304679871 3.29986524581909 3.38174176216125 3.44491171836853 3.49881410598755 3.55630302429199 3.62190747261047 3.71965360641479 3.79336452484131 3.86131286621094 3.88503932952881 3.90081667900085 4.38856410980225 4.21051025390625 3.93012762069702 4.01064968109131 4.1559271812439 4.2788143157959
1.19654297828674 1.31024241447449 1.54986083507538 2.19943523406982 2.24784970283508 1.69521713256836 1.77488505840302 1.85779988765717 1.92209243774414 1.9941041469574 2.11943459510803 2.24858975410461 2.4087986946106 2.59758400917053 2.48851943016052 2.57678079605103 2.74422311782837 2.57040047645569 2.30862426757812 1.73889648914337 1.31238257884979 1.29545247554779 1.43085932731628 1.72301030158997 1.92173135280609 1.0772807598114 0.804270267486572 0.0799131616950035 0.161089584231377 0.250475108623505 0.389478713274002 0.486284136772156 -0.0981548428535461 -0.091318666934967 -0.0563326515257359 0.143723949790001 0.247397020459175 0.417877227067947 0.443174809217453 -0.0414106100797653 -0.0205178875476122 0.0545322149991989 0.244377166032791 1.11936593055725 1.51893889904022 1.67182660102844 1.71515464782715 1.76712465286255 1.81474018096924 1.86509764194489 1.93904876708984 2.03429913520813 2.13981103897095 2.23773527145386 2.32740473747253 2.41302394866943 2.48834252357483 2.53261685371399 2.60747933387756 3.03294396400452 4.3166356086731 2.73983454704285 2.66406750679016 2.67522978782654 2.76075053215027 2.9388439655304 3.1724545955658 3.38924431800842 3.58119559288025 3.81679224967957 4.03079128265381 4.26801061630249 4.48621606826782 4.72094869613647 4.97702217102051 5.26796722412109 5.60489130020142 5.98232555389404 6.41409540176392 6.89868640899658 7.52408123016357 8.28480339050293 9.19227504730225 10.3760375976562 11.9250593185425 13.8854150772095 16.5215263366699 21.1242370605469 29.7202625274658 35.4096412658691 17.7252368927002 6.97109460830688 1.33128297328949 1.81115877628326 1.97134327888489 -0.30222487449646 0.082467645406723 0.683499276638031 1.55116665363312 2.283931016922 3.09424376487732 4.2401385307312 5.4593505859375 6.27105903625488 7.33874702453613 9.8071813583374 14.6032762527466 15.66419506073 12.1756372451782 3.05208945274353 -1.71558117866516 -1.51037573814392 -1.21361339092255 -0.995657086372375 -0.713048577308655 -0.862821340560913 -0.81078177690506 -0.660448014736176 -0.50655460357666 -0.314279437065125 -0.0798126012086868 0.172573938965797 0.372600167989731 0.498690605163574 0.579388976097107 0.629542887210846 0.69072949886322 0.738981902599335 0.776047229766846 0.811432480812073 0.854563176631927 0.907348453998566 0.962700664997101 1.06704008579254 1.18394720554352 1.25841641426086 1.3184472322464 1.37253558635712 1.45154988765717 1.61028015613556 1.78224098682404 2.14144134521484 1.52731919288635 1.42085933685303 1.55770516395569 1.3841689825058 1.53943490982056 1.91023933887482 2.23696255683899 2.57678079605103 2.81122422218323 2.94849920272827 3.01295232772827 3.0799241065979 3.16407489776611 3.25405502319336 3.34461188316345 3.42219662666321 3.49099206924438 3.55511021614075 3.61746287345886 3.69137763977051 3.77154088020325 3.86754751205444 3.94953775405884 4.28934192657471 5.02930068969727 5.36931180953979 3.98202204704285 4.03943347930908 4.14605045318604 4.26296043395996
1.24512445926666 1.37741899490356 1.51935625076294 2.52731919288635 1.71397531032562 1.80532705783844 1.90795183181763 1.99785661697388 2.05214023590088 2.12815475463867 2.21473121643066 2.32809329032898 2.47720432281494 2.56288290023804 2.61682343482971 2.74553155899048 2.84986615180969 2.6138129234314 2.67720532417297 2.60157823562622 1.25162422657013 1.27712488174438 1.31143367290497 1.33772265911102 1.1158435344696 1.07058954238892 0.488547027111053 0.490187972784042 0.504556953907013 0.612298607826233 1.0146005153656 1.61824238300323 0.169415518641472 0.102867543697357 0.146748408675194 0.189579501748085 0.227223008871078 0.580027163028717 1.10034477710724 0.864308536052704 0.239711508154869 0.271720260381699 0.307812184095383 0.547742962837219 1.01812255382538 1.20045065879822 1.23552989959717 1.28863000869751 1.34753561019897 1.41591262817383 1.48843395709991 1.56636548042297 1.67060458660126 2.00949311256409 2.38240814208984 2.80557608604431 3.37161874771118 3.90947222709656 4.49857616424561 7.20665788650513 5.63620328903198 4.92358541488647 1.64371109008789 1.65933167934418 1.86205339431763 2.15742993354797 2.45595216751099 2.69738745689392 2.86948418617249 3.02837729454041 3.17057657241821 3.32216095924377 3.4899754524231 3.67059469223022 3.87048983573914 4.10500383377075 4.36786937713623 4.65905952453613 4.97130250930786 5.36418390274048 5.82961320877075 6.36154222488403 7.00895738601685 7.79572916030884 8.91704654693604 10.4698905944824 12.5472497940063 15.4840545654297 20.1724700927734 28.8614120483398 20.6229877471924 8.08653163909912 0.684968531131744 0.812983810901642 2.43516159057617 1.23123896121979 0.737295806407928 1.0893532037735 1.72703540325165 2.57356071472168 3.59850597381592 4.71194124221802 6.21388912200928 7.35912179946899 9.58201217651367 12.9944229125977 18.9171009063721 18.8101654052734 11.6751022338867 2.43027997016907 -1.58978462219238 -1.46348512172699 -1.20900523662567 -1.0257842540741 -0.954601764678955 -0.896096885204315 -0.798989057540894 -0.663747847080231 -0.507156491279602 -0.350484311580658 -0.153889313340187 0.075018398463726 0.270242720842361 0.444614887237549 0.545605480670929 0.57958710193634 0.61291778087616 0.651279926300049 0.690131962299347 0.712345540523529 0.745652139186859 0.786899209022522 0.842151165008545 0.903042078018188 0.982945382595062 1.05389320850372 1.12843477725983 1.20459139347076 1.29946804046631 1.37159168720245 1.46101200580597 1.65674686431885 1.4858558177948 1.60209155082703 1.88765454292297 2.06544208526611 2.23219156265259 1.79951345920563 2.09819293022156 2.42440581321716 2.83469772338867 3.41093134880066 3.60711574554443 3.69988512992859 3.7976291179657 3.89828085899353 3.99341607093811 4.08617162704468 4.18021965026855 4.27948808670044 4.36128520965576 4.45520734786987 4.53026628494263 4.63150262832642 4.74426794052124 4.85358619689941 4.94327211380005 4.99387502670288 5.00294256210327 5.09347534179688 5.19412899017334 5.30459785461426
1.37526261806488 1.5187771320343 1.6669317483902 1.84691178798676 1.88334035873413 1.97032630443573 2.06813716888428 2.15117311477661 2.21714782714844 2.2698380947113 2.33778762817383 2.4522557258606 2.5440788269043 2.65605211257935 2.72379279136658 2.81822776794434 2.89736199378967 2.95284676551819 3.06279611587524 2.79703330993652 2.58786392211914 2.68699193000793 1.35295915603638 0.668187618255615 0.862907290458679 0.964956402778625 1.05894124507904 1.31393218040466 1.45334374904633 0.434545367956161 1.06334745883942 2.1476891040802 1.13971257209778 0.34501177072525 0.399393707513809 0.448097318410873 0.523050785064697 0.594700694084167 1.0732387304306 0.983778417110443 0.596681773662567 0.61497700214386 0.674592733383179 0.768462359905243 0.850825726985931 0.938006520271301 1.05870139598846 1.23349273204803 1.45422029495239 1.76100671291351 2.09446620941162 2.41253590583801 2.7755446434021 3.19875931739807 3.67059373855591 4.28610181808472 5.00548505783081 5.93603467941284 6.89327764511108 8.44187450408936 9.44947338104248 8.2103385925293 0.740189731121063 0.806943595409393 0.933948397636414 1.17657351493835 1.51463425159454 1.73368036746979 1.9050155878067 1.99008738994598 2.07820606231689 2.17027497291565 2.27475643157959 2.39322376251221 2.51499676704407 2.65742087364197 2.81500673294067 2.98269033432007 3.17945122718811 3.41445112228394 3.68701767921448 4.00082063674927 4.37144136428833 4.85558700561523 5.48433065414429 6.34108352661133 7.48831415176392 8.95972061157227 11.1456451416016 16.1390247344971 13.6357040405273 10.9648094177246 4.42309761047363 1.67162418365479 1.12401843070984 1.82090258598328 1.17361116409302 1.2716201543808 1.73745357990265 2.56808423995972 3.63510012626648 4.75362348556519 6.57343006134033 8.32894039154053 11.4768581390381 16.4527130126953 23.8331146240234 17.4854373931885 7.34271144866943 -1.25105023384094 -1.1932213306427 -1.14687943458557 -0.89119952917099 2.09115791320801 -0.977471768856049 -0.9229376912117 -0.758374989032745 -0.619431614875793 -0.481960505247116 -0.339425325393677 -0.185700282454491 0.00282130413688719 0.192746043205261 0.372340351343155 0.491546779870987 0.516860842704773 0.531639516353607 0.563725113868713 0.597947061061859 0.616383731365204 0.644539177417755 0.677272021770477 0.714544177055359 0.769878089427948 0.818570792675018 0.875491678714752 0.927511036396027 0.99447375535965 1.09287118911743 1.21208357810974 1.41906404495239 1.31191635131836 1.39050602912903 1.52468192577362 1.67266142368317 1.79688882827759 1.84580719470978 1.85062432289124 2.02707147598267 2.58175897598267 3.08158850669861 3.57652926445007 3.79105806350708 3.97110629081726 4.05098056793213 4.14665222167969 4.24776172637939 4.34325504302979 4.44387149810791 4.55005598068237 4.6533579826355 4.75803136825562 4.86003065109253 4.93673419952393 5.05721282958984 5.18728971481323 5.31759929656982 5.42184782028198 5.49609899520874 5.57847118377686 5.67085027694702 5.77300691604614
1.82033121585846 1.97247076034546 2.14187717437744 2.33258056640625 2.4874267578125 2.56068992614746 2.68242740631104 2.79603266716003 2.90070557594299 2.9797830581665 3.1004536151886 3.23065280914307 3.37600803375244 3.54674458503723 3.7258198261261 3.95567893981934 4.15224027633667 4.3307843208313 4.58283710479736 5.09168672561646 5.79705429077148 5.52237176895142 6.82621622085571 0.268664062023163 0.407128870487213 0.981094896793365 1.43994688987732 1.94228053092957 2.07331371307373 0.436461746692657 0.726711392402649 1.7235289812088 1.98021197319031 0.451335698366165 0.495456904172897 0.585663259029388 0.644692182540894 0.694843709468842 0.716828525066376 0.738897621631622 0.793279528617859 0.840648114681244 0.871052503585815 0.965227961540222 1.07650089263916 1.1963917016983 1.35218691825867 1.55934953689575 1.83428585529327 2.21261310577393 2.58615303039551 2.91972804069519 3.28583669662476 3.72760772705078 4.28363943099976 4.99274635314941 5.71734142303467 6.77444171905518 8.31593704223633 10.0782737731934 12.6666078567505 7.5940055847168 0.0461040586233139 0.05348214879632 0.214839249849319 0.469267666339874 0.925436496734619 1.20426547527313 1.37837529182434 1.4307816028595 1.4907648563385 1.55474126338959 1.6277015209198 1.71446871757507 1.80500912666321 1.90684306621552 2.00784301757812 2.12929892539978 2.27234745025635 2.42924761772156 2.62062644958496 2.85237908363342 3.12210774421692 3.44784116744995 3.81546902656555 4.33069038391113 5.04864263534546 6.12528800964355 7.60034704208374 9.88893127441406 12.1394901275635 14.1931562423706 5.22154664993286 1.51635766029358 2.26755833625793 0.600599646568298 0.64570027589798 0.77651846408844 1.03959858417511 1.43183863162994 2.37676763534546 3.73654842376709 5.17333507537842 6.81028652191162 9.49638366699219 13.9863224029541 23.2710285186768 7.19061708450317 2.23194599151611 2.02576375007629 3.81929349899292 2.8099250793457 1.58989202976227 3.17687654495239 0.584001958370209 -0.857680380344391 -0.752005100250244 -0.599844515323639 -0.444555878639221 -0.28902268409729 -0.161251336336136 -0.0128442430868745 0.137687042355537 0.288249284029007 0.399420380592346 0.43986701965332 0.463933885097504 0.492174297571182 0.519476294517517 0.53346985578537 0.560438752174377 0.583088934421539 0.611649036407471 0.638883054256439 0.685068607330322 0.719401478767395 0.758611142635345 0.827693045139313 0.907121121883392 0.940171718597412 1.01011979579926 1.08686006069183 1.13726246356964 1.2256680727005 1.32391119003296 1.42803335189819 1.5029296875 1.72493469715118 2.14192581176758 2.7608642578125 3.16120505332947 3.53173184394836 3.82717442512512 4.00567293167114 4.09653043746948 4.19074678421021 4.28956699371338 4.38889360427856 4.49394178390503 4.60325908660889 4.70389795303345 4.81920576095581 4.92670392990112 5.04094982147217 5.15013742446899 5.25870561599731 5.39069938659668 5.529944896698 5.6557674407959 5.7670750617981 5.88236856460571 5.99806880950928
2.22487831115723 2.40211033821106 2.59955406188965 2.81347513198853 3.06618785858154 3.18592882156372 3.32486963272095 3.47124838829041 3.60115790367126 3.74535298347473 3.89284205436707 4.05644989013672 4.26716566085815 4.54495000839233 4.85949420928955 5.25504398345947 5.67878818511963 6.17248249053955 6.77266931533813 7.50336217880249 8.59145069122314 11.0313301086426 13.5571098327637 0.131469696760178 0.308485746383667 0.51999831199646 1.03873980045319 2.05256319046021 1.56564962863922 0.537301599979401 0.544469237327576 0.751585066318512 1.11251163482666 0.585933983325958 0.604174673557281 0.725363254547119 0.797410905361176 0.924877524375916 0.881908118724823 0.913149237632751 0.974804937839508 1.04772913455963 1.11045038700104 1.18814241886139 1.31149053573608 1.46028828620911 1.64876568317413 1.84655952453613 2.11135292053223 2.53048849105835 2.98035430908203 3.36546397209167 3.7700092792511 4.24107313156128 4.87152862548828 5.53217315673828 6.34812879562378 7.63675975799561 9.59033966064453 11.9922714233398 13.974308013916 6.6091456413269 -0.436851263046265 -0.344085961580276 -0.0853127762675285 0.0563281141221523 0.411400198936462 0.843161582946777 1.03490650653839 1.07534849643707 1.12691950798035 1.17075598239899 1.22773039340973 1.2863689661026 1.35226225852966 1.42484569549561 1.48557221889496 1.5743293762207 1.66754496097565 1.79112231731415 1.96307170391083 2.11895108222961 2.31492495536804 2.57595729827881 2.84139347076416 3.21839213371277 3.7493908405304 4.50129795074463 5.54527044296265 7.19258451461792 10.285120010376 10.7854042053223 5.16113376617432 1.35708236694336 1.11154210567474 0.600851595401764 0.763717293739319 1.03856754302979 1.32493937015533 1.66362595558167 2.29569625854492 2.97935605049133 3.41430163383484 3.86921715736389 4.40906620025635 5.12773847579956 6.08315753936768 7.0573787689209 8.71970462799072 12.5187501907349 8.02073574066162 2.22684478759766 2.72034454345703 2.88251447677612 2.69282579421997 -0.558623492717743 -0.64368337392807 -0.558248281478882 -0.403784513473511 -0.251264780759811 -0.10567482560873 0.0064953644759953 0.112105347216129 0.224684461951256 0.315008640289307 0.357130855321884 0.368371665477753 0.391115516424179 0.412361204624176 0.422170251607895 0.446140974760056 0.458471328020096 0.473177164793015 0.502578139305115 0.524861454963684 0.56115585565567 0.611890435218811 0.62608802318573 0.683884620666504 0.727181136608124 0.759254038333893 0.808135390281677 0.851352870464325 0.895392239093781 0.858094453811646 0.913812756538391 1.4034343957901 1.7436808347702 2.11204266548157 2.67064738273621 3.14778017997742 3.47158551216125 3.7426609992981 3.97400164604187 4.07204389572144 4.16242980957031 4.26624202728271 4.36147832870483 4.46660804748535 4.57328176498413 4.68355417251587 4.79890060424805 4.91775178909302 5.0354208946228 5.17362308502197 5.27541780471802 5.386314868927 5.52483987808228 5.67984533309937 5.8374662399292 5.98763227462769 6.13174247741699
2.34800601005554 2.50521159172058 2.7111873626709 2.95171928405762 3.20556688308716 3.43834042549133 3.5416738986969 3.69379281997681 3.84405612945557 3.98550748825073 4.12634515762329 4.28431558609009 4.52786159515381 4.91232538223267 5.26028490066528 5.68737268447876 6.2368540763855 6.9246940612793 7.51079273223877 8.32303428649902 9.89745140075684 12.7125873565674 16.2887573242188 0.167629182338715 0.224570080637932 0.526128709316254 0.684038281440735 0.615018904209137 1.63571357727051 0.625278174877167 0.627785384654999 0.65201872587204 0.696762442588806 0.733228325843811 0.770148158073425 0.878823101520538 0.943595170974731 0.992983877658844 1.07803916931152 1.13024914264679 1.28765630722046 1.18822395801544 1.23613452911377 1.41912007331848 1.53868412971497 1.68692111968994 1.86839306354523 2.10813403129578 2.39837837219238 2.82918691635132 3.32438564300537 3.75876545906067 4.19618988037109 4.6979660987854 5.32709646224976 6.18321895599365 7.30772590637207 8.7742395401001 10.9025077819824 13.6448440551758 14.8751840591431 4.83154249191284 -0.838562250137329 -0.583199858665466 -0.250163823366165 -0.141264960169792 0.048202607780695 0.494291067123413 0.768899142742157 0.818128407001495 0.859002113342285 0.892336010932922 0.938144445419312 0.978456974029541 1.02989864349365 1.07934558391571 1.11699891090393 1.17453157901764 1.24216556549072 1.32576894760132 1.43195533752441 1.54896903038025 1.71271741390228 1.87697958946228 2.05954432487488 2.29196858406067 2.60272669792175 3.06746029853821 3.77694439888 4.70100688934326 6.170081615448 9.02954864501953 7.50267744064331 3.21074438095093 0.473944097757339 0.615336716175079 0.843358159065247 1.07060885429382 1.40290319919586 1.68719899654388 1.960524559021 2.18483185768127 2.42468166351318 2.72460556030273 3.11141443252563 3.58544874191284 4.27171945571899 5.39960765838623 7.16021728515625 11.0359687805176 9.60144233703613 1.92570888996124 3.65194797515869 4.64361000061035 4.07301568984985 1.3161780834198 -0.472901105880737 -0.418073385953903 -0.322217613458633 -0.204036936163902 -0.0746603161096573 0.048527754843235 0.16020804643631 0.284310638904572 0.368977338075638 0.401105165481567 0.419457018375397 0.448205888271332 0.467648684978485 0.48312109708786 0.499352425336838 0.515603542327881 0.536305129528046 0.558757185935974 0.592680990695953 0.618324995040894 0.634779989719391 0.684202194213867 0.73086416721344 0.78510046005249 0.819153368473053 0.859472513198853 0.927397966384888 1.29534316062927 0.954260885715485 0.992008626461029 1.33697748184204 1.9166659116745 2.17337656021118 2.52651619911194 2.95054292678833 3.28792548179626 3.51867771148682 3.75532484054565 3.85782742500305 3.97472858428955 4.08429908752441 4.17921352386475 4.27531719207764 4.37630796432495 4.49048328399658 4.60066270828247 4.72558689117432 4.85277557373047 4.95834016799927 5.07590818405151 5.20296716690063 5.31669759750366 5.45891571044922 5.62867879867554 5.80344724655151 5.97312641143799
2.40468454360962 2.51768469810486 2.69655227661133 2.93602204322815 3.18076920509338 3.45037817955017 3.56344294548035 3.70196294784546 3.83040356636047 3.94402599334717 4.06827831268311 4.19937658309937 4.46035432815552 4.84056329727173 5.14363527297974 5.50625944137573 5.94381904602051 6.47388792037964 7.16196393966675 7.9486608505249 9.20437049865723 11.6734189987183 16.0675926208496 5.77401351928711 0.198161691427231 0.498569071292877 0.85726135969162 0.667630553245544 0.689608097076416 2.09091234207153 0.721479117870331 0.760144412517548 0.783477246761322 0.855071008205414 0.938589930534363 1.02437925338745 1.08571457862854 1.13291680812836 1.18939995765686 1.3026750087738 1.29033052921295 1.35474705696106 1.50573933124542 1.61612319946289 1.69094979763031 1.83996498584747 2.07116174697876 2.35371065139771 2.67643523216248 3.10539579391479 3.55297589302063 3.97309517860413 4.43241119384766 5.0029239654541 5.72045516967773 6.61711645126343 7.81505250930786 9.31677341461182 11.3219833374023 14.9114360809326 16.1713008880615 4.38123035430908 -1.09356451034546 -0.855751812458038 -0.644757449626923 -0.511197328567505 -0.22899903357029 0.125840947031975 0.361975729465485 0.41347998380661 0.433908104896545 0.444007754325867 0.456120401620865 0.464168876409531 0.467896312475204 0.480596303939819 0.487429529428482 0.499569922685623 0.515849769115448 0.552739143371582 0.586307346820831 0.651621341705322 0.713883996009827 0.799732148647308 0.893950045108795 0.979420483112335 1.12194561958313 1.31331288814545 1.58862721920013 1.95743691921234 2.51048111915588 3.3615357875824 4.94999885559082 3.90955924987793 0.502606451511383 0.617443799972534 0.765965282917023 0.890607953071594 1.0792236328125 1.16968750953674 1.23621988296509 1.327712059021 1.43041086196899 1.54543805122375 1.68759179115295 1.83601605892181 2.02759027481079 2.2765634059906 2.59049320220947 2.99100208282471 3.67076206207275 3.75843024253845 5.05849075317383 4.94353103637695 3.08008122444153 1.09357166290283 0.879604637622833 -0.140006393194199 -0.0927771404385567 -0.0436763800680637 0.0298224240541458 0.124651379883289 0.219209566712379 0.307498753070831 0.360275536775589 0.396946042776108 0.414285272359848 0.432195246219635 0.457182109355927 0.470319241285324 0.483215123414993 0.491829842329025 0.524136245250702 0.631725907325745 0.538840234279633 0.568263351917267 0.597864806652069 0.618867158889771 0.658858299255371 0.688372552394867 0.726747810840607 0.781315624713898 0.802585780620575 0.840182840824127 0.861164629459381 0.875771522521973 1.16539537906647 1.67089056968689 1.96524333953857 2.21900606155396 2.5065004825592 2.88924980163574 3.11442971229553 3.40841746330261 3.48892283439636 3.58152985572815 3.67800045013428 3.76552200317383 3.84935259819031 3.94268226623535 4.03760290145874 4.14224720001221 4.2562198638916 4.34839057922363 4.39408922195435 4.46906900405884 4.63077640533447 4.79961347579956 4.94659185409546 5.09565448760986 5.25333786010742 5.43044900894165
2.35454773902893 2.40717697143555 2.52886152267456 2.7245020866394 2.95308303833008 3.21799731254578 3.47948622703552 3.57358741760254 3.6560173034668 3.76325440406799 3.86444640159607 4.00124740600586 4.26773023605347 4.59303426742554 4.96680688858032 5.21308565139771 5.49201726913452 5.95514345169067 6.55418157577515 7.14903163909912 7.81201171875 8.77343845367432 10.9377899169922 11.2785520553589 0.125862210988998 0.196657359600067 0.403025358915329 0.455169439315796 0.49067884683609 0.549278140068054 0.562885105609894 0.579164445400238 0.606652498245239 0.690677165985107 0.745690643787384 0.78730583190918 0.815967500209808 1.4023265838623 0.821705341339111 0.877825617790222 0.999051094055176 1.11907458305359 1.19051361083984 1.25639665126801 1.32131469249725 1.43067944049835 1.64900958538055 1.90894961357117 2.21042537689209 2.56516337394714 2.92096877098083 3.2417368888855 3.59205794334412 4.06390762329102 4.65505027770996 5.3495306968689 6.20589685440063 7.16803932189941 8.65861225128174 10.3790082931519 12.8366327285767 3.32464218139648 -0.978067398071289 -0.833790421485901 -0.686127722263336 -0.575742900371552 -0.387289941310883 -0.0551297813653946 0.163010895252228 0.213141024112701 0.23947811126709 0.272694557905197 0.280765742063522 0.283784449100494 0.288472771644592 0.296181678771973 0.292762786149979 0.294977933168411 0.308680593967438 0.314549803733826 0.319021910429001 0.335874199867249 0.347399264574051 0.360456317663193 0.376303464174271 0.38998743891716 0.402280420064926 0.416604667901993 0.435623347759247 0.459180027246475 0.481778472661972 0.509521186351776 0.531590461730957 0.564196348190308 0.547641575336456 0.558992862701416 0.604487180709839 0.635012447834015 0.668178021907806 0.702320337295532 0.729365587234497 0.769170522689819 0.818584322929382 0.8659428358078 0.922921657562256 0.987106323242188 1.06451046466827 1.1781712770462 1.34295165538788 1.54575884342194 1.82308053970337 2.24137091636658 2.94528532028198 5.14556455612183 2.84287571907043 1.0830934047699 1.33036363124847 1.53172838687897 0.569080948829651 0.579095005989075 0.62322735786438 0.700283467769623 0.794460773468018 0.891716837882996 0.94041246175766 0.975788712501526 1.00356781482697 1.03303647041321 1.0625547170639 1.08880174160004 1.11809384822845 1.14758944511414 1.16560220718384 1.18658411502838 1.22119402885437 1.24930834770203 1.28996419906616 1.329256772995 1.36143696308136 1.40690612792969 1.45396196842194 1.49309229850769 1.5149199962616 1.54850685596466 1.59968852996826 1.65603137016296 1.7290518283844 1.77320802211761 1.79713499546051 1.87812268733978 1.9919445514679 2.29939198493958 2.61441159248352 2.83912944793701 2.89405131340027 2.96211266517639 3.34657788276672 3.8264274597168 4.3972487449646 5.16133451461792 6.21580600738525 8.1538553237915 11.5685110092163 16.7173118591309 2.95809650421143 3.10963869094849 3.51450705528259 3.84453105926514 4.05566501617432 4.21228647232056 4.35282516479492 4.49080181121826
2.14873123168945 2.15656709671021 2.20143413543701 2.32011675834656 2.50186944007874 2.71647000312805 2.99851369857788 3.15585565567017 3.17832517623901 3.25706100463867 3.34160923957825 3.46237444877625 3.64446520805359 3.92742013931274 4.17382431030273 4.22854852676392 4.46377658843994 4.85406303405762 5.29505205154419 5.77072477340698 6.16815614700317 6.4850902557373 7.85162830352783 7.66382789611816 2.62878751754761 0.0997140184044838 0.281281739473343 0.496356785297394 0.826151013374329 1.07932496070862 1.27183330059052 1.38821184635162 1.63295841217041 2.05096936225891 2.44023418426514 3.10615468025208 4.2291464805603 5.80478143692017 6.96097326278687 0.110166661441326 0.297035425901413 0.640927314758301 0.768872618675232 0.818861663341522 0.868422389030457 0.994314670562744 1.18569922447205 1.40949034690857 1.6469224691391 1.91480910778046 2.15432333946228 2.33460688591003 2.57061457633972 2.9006609916687 3.30794882774353 3.61772561073303 3.7039589881897 3.99414491653442 5.40289115905762 4.30600881576538 4.76681184768677 4.82763624191284 -0.849976181983948 -0.79695200920105 -0.628854691982269 -0.498279958963394 -0.341908395290375 -0.142289981245995 0.0469841323792934 0.0787802264094353 0.090862363576889 0.126471072435379 0.166690737009048 0.169826224446297 0.24240879714489 0.359700351953506 0.170174777507782 0.172389879822731 0.17603474855423 0.17946058511734 0.185460358858109 0.195223301649094 0.204268306493759 0.212257027626038 0.220930546522141 0.231321975588799 0.2388014793396 0.244468063116074 0.255245119333267 0.266292124986649 0.284271091222763 0.298142373561859 0.318151503801346 0.33406075835228 0.341938704252243 0.360901862382889 0.369759917259216 0.38965255022049 0.402545869350433 0.420204818248749 0.431400984525681 0.452694773674011 0.47846531867981 0.500770747661591 0.53461891412735 0.56387734413147 0.607574045658112 0.651454746723175 0.703117787837982 0.770570993423462 0.853660404682159 0.946632742881775 1.04669201374054 1.7068578004837 2.84858536720276 1.06714487075806 1.24358665943146 1.74692821502686 1.88127303123474 1.44786822795868 1.4796154499054 1.54240810871124 1.62477421760559 1.70585262775421 1.78777039051056 1.8434454202652 1.89837646484375 1.95000696182251 1.99140882492065 2.04471445083618 2.09865760803223 2.1503598690033 2.19577479362488 2.24702286720276 2.30601000785828 2.38237619400024 2.44705843925476 2.52606916427612 2.60780811309814 2.68853855133057 2.76479554176331 2.83059096336365 2.88705015182495 2.95511198043823 3.0634298324585 3.20787167549133 3.36101484298706 3.52046275138855 3.63700985908508 3.8196394443512 4.06845188140869 4.29937601089478 4.66943216323853 5.09370613098145 5.6111364364624 6.1949987411499 6.92973947525024 7.83453750610352 9.1231575012207 10.4944620132446 12.3005228042603 15.4713525772095 19.0757179260254 20.8192691802979 5.0884575843811 0.997942864894867 1.56368279457092 2.27227163314819 2.67111921310425 2.89160370826721 3.04305744171143 3.16434836387634
