NCOLS 171
NROWS 32
XLLCORNER 353776
YLLCORNER 6701280
CELLSIZE 16 
NODATA_value -3.4e+38 
8.5271692276001 7.74021244049072 8.09845066070557 6.31017446517944 3.93712282180786 8.64268398284912 6.6585955619812 4.57214546203613 4.10318231582642 0.644054234027863 -0.542260468006134 -1.14940738677979 -1.51040363311768 -1.96313524246216 -2.46843194961548 -2.6855845451355 -2.7763774394989 -2.87540555000305 -2.84300065040588 3.52433919906616 6.90246105194092 6.17227983474731 4.82968616485596 3.10343289375305 2.39558911323547 2.44428181648254 2.17149472236633 2.3346266746521 3.04097509384155 2.48965454101562 5.90354061126709 11.3584966659546 13.7337636947632 12.5750570297241 14.0984973907471 15.5657453536987 14.4105234146118 12.680947303772 10.6723041534424 9.39481544494629 8.13912010192871 7.33763313293457 6.93778562545776 6.66724729537964 5.59241914749146 3.68477892875671 2.09554600715637 1.30763447284698 1.12285721302032 1.10632002353668 2.20080351829529 4.80366516113281 6.33519887924194 5.05932807922363 5.04220056533813 5.5733962059021 5.720862865448 5.10087299346924 7.06253004074097 11.2316484451294 11.8119344711304 12.4873924255371 10.8493690490723 8.66205978393555 7.1266074180603 5.89699602127075 4.20657777786255 2.92693543434143 2.45463085174561 2.38491606712341 2.29093766212463 2.27799463272095 2.17777585983276 2.55020761489868 2.96585845947266 2.43422341346741 1.97738635540009 1.90909564495087 6.92269897460938 4.88827180862427 1.62432467937469 1.50850093364716 5.88140535354614 13.9138984680176 15.1509876251221 13.6780529022217 12.5524196624756 13.0362701416016 18.0997352600098 25.90696144104 22.6552600860596 25.736177444458 21.7497463226318 20.6767730712891 18.0634765625 16.0670738220215 12.3478956222534 10.1945657730103 8.93114566802979 7.9203929901123 7.08032989501953 6.46293973922729 6.05121231079102 5.6844334602356 5.53305053710938 5.30297231674194 4.98128414154053 4.55727767944336 4.14255666732788 3.8172869682312 3.79667258262634 3.73661470413208 3.5662989616394 3.20657134056091 2.79389572143555 2.4462571144104 2.09426832199097 1.71475863456726 1.36735057830811 1.63156807422638 3.08496379852295 3.74532890319824 4.09186887741089 4.25343942642212 4.36338520050049 4.28495454788208 4.37932205200195 4.33858680725098 3.92803072929382 3.65949940681458 3.41199326515198 3.1069483757019 2.7841055393219 2.46174001693726 2.85464811325073 3.32978320121765 2.59515833854675 2.98486495018005 2.88131809234619 2.69198966026306 3.55276441574097 5.36298322677612 4.71277284622192 2.55363941192627 1.51207065582275 1.03047347068787 1.34613955020905 2.4114990234375 3.27761292457581 3.26235270500183 3.16991496086121 2.69667387008667 2.14643549919128 1.04455864429474 0.975538313388824 0.163786649703979 -0.0601261332631111 -0.0375614389777184 0.0224152114242315 0.133646801114082 0.439526677131653 0.819032490253448 1.24863743782043 1.37614929676056 1.19235742092133 0.957965195178986 0.724512159824371 0.5841383934021 0.555308103561401 1.11739635467529 2.41135430335999
9.52546310424805 8.05646705627441 7.83668184280396 6.46733665466309 5.11478328704834 5.22388505935669 2.91415119171143 3.1776282787323 3.14806842803955 2.08037066459656 -0.238801434636116 -1.05008625984192 -1.4578310251236 -1.80837392807007 -2.32035446166992 -2.80919289588928 -3.02141809463501 -3.09019947052002 -2.92530703544617 4.82468938827515 8.74902820587158 7.25819253921509 5.64965152740479 4.14819383621216 3.05054950714111 2.26288652420044 2.28428673744202 2.9647216796875 5.32174110412598 7.65921211242676 12.7904663085938 11.5357046127319 10.3903007507324 11.1511964797974 11.3978300094604 12.2343454360962 11.7786569595337 10.3587436676025 9.57237434387207 8.29992294311523 7.54117488861084 6.73006916046143 6.22555541992188 5.71305847167969 4.6955132484436 3.46267080307007 2.20964026451111 1.39954829216003 1.19973111152649 2.6095404624939 5.13318490982056 7.11756753921509 8.04976272583008 8.21314716339111 7.10400438308716 8.4361400604248 8.9784984588623 9.26259708404541 11.3824119567871 12.807183265686 10.8518466949463 11.2133960723877 9.54945087432861 7.78454160690308 6.01658630371094 4.22546195983887 3.31058669090271 3.25020742416382 2.56675934791565 2.3224139213562 2.32360696792603 2.25214004516602 2.15465021133423 2.04582047462463 1.99791860580444 2.59559226036072 3.40590572357178 5.3790020942688 6.68121290206909 4.74070978164673 2.05010318756104 4.83107709884644 7.71157789230347 12.1308059692383 14.9628219604492 15.3968276977539 14.9004802703857 13.9429721832275 15.8387136459351 18.6025943756104 21.9593811035156 20.8797206878662 21.180835723877 18.6298484802246 17.7148685455322 15.7144165039062 12.8551073074341 10.2583360671997 9.06278514862061 7.99864768981934 7.21921825408936 6.47624635696411 5.89731121063232 5.53957986831665 5.23996019363403 5.09734392166138 4.91356754302979 4.63954591751099 4.17973661422729 3.67513251304626 3.42907762527466 3.33948040008545 3.14365148544312 2.82432317733765 2.52354884147644 2.2981116771698 1.93944180011749 1.57301509380341 1.33698201179504 1.26270353794098 1.52592146396637 2.89007520675659 3.49986791610718 3.83884501457214 4.00955486297607 4.11483526229858 4.06692600250244 3.96264004707336 3.42673850059509 3.37221574783325 3.34870386123657 3.27646541595459 5.17469167709351 7.78988456726074 5.60012865066528 4.05969047546387 3.5851035118103 4.22731781005859 5.16259098052979 5.79436683654785 6.86166477203369 6.90319395065308 4.90847587585449 3.64943838119507 2.39770078659058 2.15803599357605 2.52235651016235 3.07904982566833 3.27225041389465 3.08185243606567 2.91775631904602 2.53337550163269 2.15143346786499 1.64122688770294 1.0208123922348 0.328066438436508 -0.00911600794643164 -0.072566345334053 -0.0443272516131401 0.0115229617804289 0.113374397158623 0.331223517656326 0.688083291053772 1.07091903686523 1.26720309257507 1.099165558815 0.926145553588867 0.734456479549408 1.28735482692719 2.16809630393982 2.93013620376587
10.0129699707031 8.43430328369141 7.78598737716675 6.27937936782837 5.11707925796509 4.01772785186768 3.13754224777222 2.49498629570007 2.57676863670349 2.66670942306519 0.277624011039734 -0.819015622138977 -1.33615458011627 -1.6271048784256 -2.19363164901733 -2.81958627700806 -3.13098645210266 -3.2372088432312 1.63380253314972 6.94263124465942 7.85599136352539 7.61197662353516 6.33065700531006 5.20907545089722 3.75554156303406 2.54471468925476 1.98025929927826 2.29493379592896 3.0691967010498 5.40464115142822 9.1878547668457 10.64870262146 10.5303030014038 11.1240530014038 11.0876550674438 10.3458547592163 9.65175724029541 8.89011669158936 8.31561946868896 7.69524002075195 6.84419870376587 6.25407743453979 5.48811340332031 4.53663015365601 3.63290882110596 2.48432159423828 1.79671537876129 1.4733943939209 1.28550863265991 4.44271945953369 7.87894821166992 8.90350437164307 9.4921407699585 9.49777889251709 8.70627880096436 12.3919095993042 13.9470024108887 13.124002456665 10.4878711700439 10.7302398681641 10.7647266387939 9.59378910064697 7.73613119125366 5.43859148025513 2.863765001297 2.30135107040405 2.32338714599609 2.74283289909363 2.69535708427429 2.35810041427612 2.2392361164093 2.18815755844116 2.09446144104004 1.98035430908203 1.88591647148132 1.92588746547699 5.7481746673584 7.37420129776001 7.50456285476685 6.13493633270264 7.10700988769531 7.07687568664551 9.46180629730225 12.9459609985352 17.1701507568359 17.0104866027832 15.7446231842041 14.6536960601807 14.2572946548462 15.4390048980713 17.2420272827148 19.4227085113525 18.2940902709961 17.8585720062256 16.0597095489502 15.0857667922974 13.0343732833862 11.4307413101196 9.25119686126709 8.14480400085449 7.23105335235596 6.66399478912354 5.94335699081421 5.40183115005493 5.10624217987061 4.85673332214355 4.72269582748413 4.57675790786743 4.12618398666382 3.75043869018555 3.45929789543152 2.87641215324402 2.70003485679626 2.53067493438721 2.33926725387573 2.08982443809509 1.77557587623596 1.46159148216248 1.27668178081512 1.11687922477722 1.08467483520508 1.4320102930069 2.72044086456299 3.29667472839355 3.63786768913269 3.78617548942566 3.89008235931396 3.77847409248352 3.48097586631775 3.35090708732605 7.74871969223022 10.1405963897705 11.3276033401489 8.67745304107666 6.07244968414307 4.07285690307617 3.05041933059692 3.12553238868713 3.79149174690247 4.74327611923218 5.69300317764282 6.13442516326904 5.20499420166016 3.94338464736938 3.20003604888916 2.42792916297913 2.62504982948303 4.08716726303101 3.51652550697327 2.93817591667175 2.52925586700439 2.23420858383179 2.03684329986572 1.84857439994812 1.48944473266602 0.763576328754425 0.164486616849899 -0.081465981900692 -0.0821048766374588 -0.0609657987952232 -0.000294222554657608 0.103898108005524 0.232972621917725 0.595435440540314 0.998136222362518 1.18263411521912 1.03221249580383 0.844094216823578 0.678049623966217 1.03478503227234 1.77220964431763
11.2656660079956 9.168044090271 7.44373035430908 6.41906642913818 4.67827892303467 3.80639481544495 3.21200156211853 2.56749439239502 2.02043771743774 1.81588065624237 1.04775714874268 -0.424348056316376 -1.14651334285736 -1.52807915210724 -2.00819993019104 -2.53725266456604 -3.03408718109131 -3.22574472427368 3.64439749717712 5.05467939376831 6.12647581100464 6.79222440719604 6.66167211532593 5.99023914337158 4.85646867752075 3.2168869972229 1.89037001132965 1.72335946559906 2.22690367698669 7.4490122795105 11.3742237091064 9.02725124359131 10.155668258667 10.2106895446777 9.79453277587891 9.355393409729 8.2015380859375 7.74819231033325 7.54462575912476 6.97553539276123 6.36442041397095 5.24792861938477 4.06371402740479 3.24184894561768 2.74189233779907 2.02263689041138 1.52836966514587 1.43629682064056 2.45997858047485 5.41612958908081 10.327600479126 8.64471435546875 7.76209163665771 7.85913848876953 9.49924468994141 14.9028520584106 14.7324838638306 12.9965114593506 10.5392093658447 8.35047817230225 7.66974306106567 6.93370294570923 5.54863739013672 2.90512561798096 1.99539220333099 2.10428786277771 2.23440432548523 5.35611820220947 2.58946251869202 2.35712027549744 2.14945030212402 2.00598573684692 1.91540336608887 1.80962979793549 1.69187319278717 1.75760936737061 6.88829469680786 7.80537748336792 7.83505153656006 7.17449808120728 6.50115203857422 6.68112707138062 14.6795101165771 15.9670429229736 16.9349460601807 16.4596691131592 15.2685813903809 14.6351776123047 13.5982904434204 13.03662109375 13.5701704025269 15.1051054000854 16.0402069091797 15.5299577713013 15.250147819519 13.9735174179077 12.6307382583618 11.6394271850586 10.2909526824951 8.41626167297363 7.43313503265381 6.67074680328369 6.14764738082886 5.47464799880981 5.00834989547729 4.72969722747803 4.52516984939575 4.41907262802124 4.20325469970703 3.88563084602356 3.53191757202148 3.26844358444214 2.6869854927063 2.22993040084839 2.09436178207397 1.93323314189911 1.65584182739258 1.33480405807495 1.18006384372711 1.09188413619995 1.0175918340683 0.992214322090149 1.35747897624969 2.5788676738739 3.12029647827148 3.44700384140015 3.58480215072632 3.68789887428284 3.59754848480225 6.98204278945923 9.78700542449951 7.82770442962646 8.3453369140625 7.84646034240723 5.2789945602417 4.47215938568115 3.08434391021729 2.53297066688538 2.71497106552124 3.16180968284607 4.14650917053223 4.79950571060181 4.82421970367432 3.93603324890137 3.49179601669312 3.1452043056488 3.85828232765198 2.86435079574585 2.59825277328491 2.52868390083313 2.24894785881042 2.11468482017517 1.95336723327637 1.83724808692932 1.41421580314636 0.828913033008575 0.265392512083054 -0.00497649516910315 -0.0957852005958557 -0.105436868965626 -0.0690112933516502 -0.0137362442910671 0.0605602040886879 0.195103213191032 0.575030267238617 0.985731601715088 1.13675916194916 0.944507420063019 0.743345677852631 0.596271157264709 0.722483992576599
9.4476842880249 8.91122245788574 7.46409511566162 5.94009256362915 4.60872507095337 3.58692741394043 3.05800080299377 2.61690235137939 2.12635326385498 1.65391278266907 1.16533815860748 0.148422718048096 -1.02485644817352 -1.36879849433899 -1.83210682868958 -2.31825733184814 -2.78316164016724 -3.1755154132843 2.86955380439758 4.48235177993774 4.7796950340271 6.03211832046509 6.31947994232178 6.36754322052002 5.61197662353516 3.83806967735291 2.27353167533875 1.72559225559235 1.92023587226868 10.013916015625 11.3015327453613 8.64252376556396 7.62169408798218 8.62990474700928 7.88831663131714 7.61951541900635 7.49591112136841 7.03312921524048 6.47453689575195 6.40611124038696 5.67446613311768 4.41116762161255 3.39752006530762 2.83630037307739 2.26164865493774 1.9821093082428 1.59341418743134 1.42319107055664 3.02494692802429 7.3826756477356 10.6707935333252 8.2152853012085 6.69754409790039 7.17667388916016 11.1211881637573 15.1143350601196 13.5707035064697 11.4675130844116 9.77807807922363 7.60715103149414 5.54137182235718 4.11124992370605 3.03594279289246 2.04301261901855 1.75082743167877 1.92382740974426 5.03485870361328 7.84308099746704 3.88414740562439 2.30450630187988 2.0542197227478 1.76867437362671 1.63797152042389 1.56753504276276 1.59192705154419 5.96391630172729 10.064079284668 8.85148334503174 7.7045636177063 7.29934930801392 7.40608167648315 10.422173500061 14.0544567108154 13.2883615493774 13.9648838043213 14.6285724639893 14.2503204345703 13.6256275177002 13.262243270874 11.9970502853394 11.6452856063843 13.2111778259277 14.1520204544067 14.3387546539307 14.054557800293 13.0990152359009 12.2949419021606 11.2932567596436 10.4564208984375 9.35588455200195 7.74315404891968 6.82423114776611 6.14490079879761 5.69965696334839 5.09758424758911 4.66380453109741 4.40615844726562 4.24690294265747 4.14542102813721 3.95658230781555 3.6685266494751 3.33707165718079 3.09754991531372 2.54870653152466 2.08248805999756 1.76614081859589 1.46912479400635 1.27086985111237 1.11967718601227 1.05108106136322 1.00922918319702 0.972408354282379 0.930101692676544 1.28145277500153 2.4332275390625 2.95508694648743 3.26821398735046 3.39865684509277 3.50020146369934 3.48638486862183 4.49877786636353 6.10506057739258 5.7415828704834 5.86689615249634 5.39696311950684 4.06185531616211 3.49814033508301 2.43246102333069 2.1480507850647 2.30281472206116 2.81881642341614 3.46208262443542 3.96579265594482 3.99500131607056 4.06517791748047 4.29986190795898 3.19065713882446 2.67683863639832 2.38727736473083 2.27644634246826 2.16434907913208 2.00719046592712 1.90915405750275 1.74096083641052 1.51765024662018 1.05280935764313 0.539778769016266 0.123968288302422 -0.0609657764434814 -0.114815168082714 -0.119361728429794 -0.103071697056293 -0.0560205392539501 -0.0158709827810526 0.878612875938416 1.55400085449219 1.07064282894135 1.08042740821838 0.853681206703186 0.627876579761505 0.533235490322113
7.39216661453247 7.60770845413208 6.63385343551636 5.43203210830688 4.7240743637085 3.92895746231079 3.11606121063232 2.60646271705627 2.16405129432678 1.65225517749786 1.25722253322601 0.418182879686356 -0.652626812458038 -1.30280065536499 -1.63310372829437 -2.10887694358826 -2.49039483070374 -2.9164719581604 4.35397291183472 6.09857130050659 6.57454538345337 8.21759414672852 7.2583065032959 6.61999368667603 6.0059552192688 4.43416261672974 2.87535285949707 2.16271424293518 6.07832384109497 12.8555774688721 10.6615018844604 7.92529916763306 6.93245267868042 6.72239828109741 5.91437721252441 6.22570610046387 6.69572067260742 6.31966638565063 5.96891260147095 5.43438482284546 4.85145139694214 3.80675864219666 3.06702399253845 2.45661807060242 2.01950788497925 2.07315635681152 1.91336965560913 1.76142549514771 6.23256683349609 9.0111780166626 9.87010288238525 7.67501831054688 7.79923057556152 12.7848072052002 14.7336950302124 15.3071937561035 12.26389503479 10.2368965148926 8.78557014465332 6.44018220901489 3.52727222442627 2.56333351135254 2.01376461982727 1.74590122699738 1.78879427909851 2.26278042793274 6.64078903198242 8.22533416748047 5.52782869338989 2.45401358604431 2.02799701690674 1.7364068031311 1.55624771118164 1.47502279281616 4.59460115432739 8.73904514312744 6.78512859344482 9.18929004669189 7.47208404541016 7.2172212600708 7.75828886032104 7.4778528213501 7.90673542022705 8.57096004486084 10.0577831268311 11.9892482757568 12.4064359664917 12.6096630096436 12.2237520217896 11.6437702178955 10.4311389923096 10.7192678451538 11.8140029907227 12.572847366333 12.6212749481201 12.3311281204224 11.6894702911377 10.8898763656616 10.1113901138306 9.47444915771484 8.56520080566406 7.0889835357666 6.28927230834961 5.69244003295898 5.30991458892822 4.72585248947144 4.28731155395508 4.09640741348267 3.98067450523376 3.89817452430725 3.74008131027222 3.48169612884521 3.16491794586182 2.94780564308167 2.42221450805664 1.98469305038452 1.68319535255432 1.38998222351074 1.08427309989929 1.02180230617523 0.979808509349823 0.9463911652565 0.894679665565491 0.865577042102814 1.20121216773987 2.30904936790466 2.79844498634338 3.11363577842712 3.24002861976624 3.35833859443665 3.34886813163757 3.42643594741821 4.1639552116394 4.31550121307373 4.39268112182617 4.06936359405518 3.24707674980164 2.7886688709259 1.93524646759033 2.28639030456543 2.5706000328064 3.25189161300659 3.6755588054657 3.84354686737061 3.76221418380737 3.57589173316956 3.11013507843018 2.57703256607056 2.26465392112732 2.07110261917114 1.99055409431458 1.95312893390656 1.80375444889069 1.69534993171692 1.53181743621826 1.25708448886871 0.895610213279724 0.422019481658936 0.0410551950335503 -0.0865019485354424 -0.117117546498775 -0.00440466171130538 0.33753228187561 0.484945565462112 1.44084167480469 1.95091652870178 1.46049070358276 1.11625695228577 1.05487239360809 0.852019965648651 1.48112392425537
7.00177001953125 6.76421022415161 6.43459129333496 5.83582544326782 4.83346033096313 4.08244180679321 3.52113318443298 2.70517253875732 2.13110542297363 1.60372769832611 1.11902344226837 0.433428943157196 -0.443816810846329 -1.18400287628174 -1.46943426132202 -1.77769148349762 -2.1319751739502 1.07003450393677 4.65646028518677 9.46248245239258 9.49745941162109 9.35346603393555 7.89896440505981 7.04651832580566 6.06947183609009 4.65074729919434 3.70749974250793 4.56077814102173 8.73785591125488 11.2688341140747 11.052622795105 8.26827907562256 6.37978792190552 5.91772365570068 6.15055561065674 5.55456256866455 5.97633171081543 5.75211620330811 5.4721097946167 4.81015920639038 3.55939769744873 3.06830167770386 2.84541010856628 2.40625858306885 1.99979054927826 2.13391423225403 3.68837952613831 6.10162734985352 11.0413360595703 12.0279874801636 11.1535120010376 8.85252952575684 12.0297794342041 13.2345666885376 12.7006511688232 13.6993589401245 11.0489597320557 9.01813507080078 7.44996213912964 4.90514469146729 2.90028381347656 2.03511357307434 1.75761914253235 1.61497557163239 1.63655233383179 2.50614070892334 5.42788505554199 7.82541036605835 5.69480133056641 3.5529887676239 2.15429162979126 1.94128811359406 3.85720539093018 7.19535446166992 8.68993186950684 9.79014778137207 8.35016918182373 11.5293521881104 9.18330764770508 9.12045383453369 7.35157060623169 6.79374980926514 6.79469013214111 6.79515933990479 7.54340505599976 9.96127796173096 10.6720132827759 11.2352809906006 11.43980884552 10.9750890731812 10.5846605300903 9.60420036315918 9.5161247253418 10.5518550872803 11.1539878845215 11.2317924499512 11.0050296783447 10.4678764343262 9.78052139282227 9.12466430664062 8.63809299468994 7.82027101516724 6.49304342269897 5.8111743927002 5.3023829460144 4.71906280517578 4.19914436340332 3.97112536430359 3.8552610874176 3.75499129295349 3.69152474403381 3.54613709449768 3.30853962898254 3.00967168807983 2.80539178848267 2.30644106864929 1.89347159862518 1.60675358772278 1.33091402053833 1.0414559841156 0.916639447212219 0.866163671016693 0.851302802562714 0.797337412834167 0.809935986995697 1.15500259399414 2.21333503723145 2.67491149902344 2.9720630645752 3.09626817703247 3.21305370330811 3.21118903160095 3.27806639671326 3.3250949382782 3.44018769264221 3.54855942726135 3.21751093864441 2.72294855117798 2.32436037063599 1.85657680034637 1.97682166099548 2.28125786781311 2.85219430923462 3.25900483131409 3.41124820709229 3.27859902381897 3.1165087223053 2.69812273979187 2.18546438217163 1.91427826881409 1.85121512413025 1.75432729721069 1.68428552150726 1.5396226644516 1.45906972885132 1.27926635742188 1.09672176837921 0.720137178897858 0.330529063940048 0.314389228820801 0.502978205680847 0.242805525660515 0.638630211353302 1.08716416358948 1.50075769424438 1.51703214645386 1.62697887420654 1.44006299972534 1.3653701543808 1.75541341304779 2.3170177936554
6.91018056869507 6.71116018295288 6.43451976776123 5.86989212036133 5.34908819198608 4.3343825340271 3.70557379722595 2.94004678726196 2.12315273284912 1.32064628601074 0.845078349113464 0.315034836530685 -0.249996364116669 -1.0575122833252 -1.39884293079376 -1.66994953155518 -1.92163038253784 -1.5493677854538 3.19516372680664 9.71109199523926 9.19122409820557 8.59798431396484 8.63843536376953 7.86846542358398 6.40079927444458 5.01411390304565 4.21128606796265 6.07647085189819 9.65941333770752 10.7346782684326 9.77807521820068 8.52767753601074 6.43487596511841 5.14039850234985 5.02270364761353 5.35779571533203 5.17791509628296 5.27737379074097 4.94311285018921 4.45335340499878 3.41412162780762 2.85389184951782 2.69643712043762 2.45104575157166 2.27512145042419 3.16298151016235 4.37874937057495 5.65771865844727 7.45461559295654 9.44507598876953 9.74785709381104 9.35051250457764 10.1000909805298 12.6772079467773 12.9619512557983 11.6171236038208 10.4504899978638 8.27016258239746 6.36840105056763 4.37424659729004 3.18793034553528 2.26621723175049 1.84515190124512 1.54986882209778 1.5995157957077 4.7651047706604 7.31308746337891 8.11217880249023 5.84124660491943 4.31359672546387 3.07076191902161 5.09322547912598 9.86785221099854 11.4282445907593 12.2624187469482 13.8062591552734 14.2352619171143 16.6229000091553 13.4497289657593 10.2718152999878 7.5117073059082 6.61293745040894 6.36839485168457 6.48473310470581 7.43869638442993 8.81514453887939 9.47600650787354 9.92887592315674 10.1425981521606 10.277361869812 9.87618446350098 9.59588432312012 8.79691505432129 8.48447036743164 9.50688076019287 10.0403051376343 10.0535287857056 9.93480587005615 9.489914894104 8.90801811218262 8.35258865356445 7.89270687103271 7.17281532287598 6.0286979675293 5.39826154708862 4.74039125442505 4.20482063293457 3.91039347648621 3.76038885116577 3.64630603790283 3.54586982727051 3.49821615219116 3.36854958534241 3.15146994590759 2.86397433280945 2.67786026000977 2.20220851898193 1.80913960933685 1.53074824810028 1.26207268238068 0.96833461523056 0.787314355373383 0.74363124370575 0.748530149459839 0.736479878425598 0.725030601024628 1.09919559955597 2.10670876502991 2.54305219650269 2.84111213684082 2.96692371368408 3.13971590995789 3.21676778793335 3.24413228034973 3.32447481155396 3.3109974861145 3.2057466506958 2.96315884590149 2.63239121437073 2.2627694606781 1.80156993865967 1.73719537258148 1.98297595977783 2.47995162010193 2.77022981643677 2.89138984680176 2.85059762001038 2.69958400726318 2.33720541000366 1.93615674972534 1.61604285240173 1.56586313247681 1.46126759052277 1.43510699272156 1.29018092155457 1.16028201580048 1.13841879367828 0.938403367996216 0.63958603143692 1.03024172782898 0.899462401866913 1.03279101848602 1.46781253814697 1.45571720600128 1.25958824157715 1.30752289295197 1.33795285224915 1.41521847248077 1.26878917217255 1.11071789264679 1.39334189891815
6.53280448913574 6.59099817276001 6.18310260772705 5.79390668869019 5.49177598953247 4.76844596862793 3.92132210731506 3.00845646858215 2.08028697967529 0.717869699001312 0.168491542339325 0.0740973204374313 -0.174466878175735 -0.692852318286896 -1.2760272026062 -1.61015093326569 -1.90536093711853 -2.20635342597961 -2.16338920593262 1.81839871406555 5.6152925491333 7.01242113113403 7.31525421142578 7.52648782730103 6.82522344589233 5.41588830947876 4.88117551803589 8.93800735473633 9.1583890914917 8.09876346588135 7.85164356231689 7.34246826171875 6.49615049362183 5.17419719696045 4.27101135253906 4.35884380340576 4.66786623001099 4.54001903533936 4.45816135406494 4.01725625991821 3.62415075302124 2.9455189704895 2.70432949066162 2.53944492340088 2.39593434333801 2.51942563056946 2.36314153671265 2.06208753585815 3.51391434669495 6.28555774688721 8.27006340026855 8.94921779632568 10.7792224884033 13.570182800293 11.5425481796265 9.90969944000244 8.73284530639648 7.01459074020386 5.73005390167236 4.33890771865845 3.41335248947144 2.87181091308594 2.04957342147827 1.57559990882874 1.54352188110352 7.10573530197144 8.35332775115967 6.66863489151001 5.77734804153442 5.33797264099121 8.20739364624023 11.2353286743164 13.6347703933716 12.8125104904175 14.3220157623291 14.7254734039307 15.0369930267334 14.625768661499 14.3570861816406 11.1354417800903 8.49496269226074 6.67270374298096 6.16591882705688 6.01783752441406 6.17110347747803 6.94328260421753 8.26870155334473 8.68547916412354 8.74430561065674 8.88971519470215 9.17824077606201 8.92610836029053 8.64642524719238 8.00823974609375 7.68153142929077 8.5917854309082 9.03671646118164 9.12942695617676 9.02195072174072 8.67255687713623 8.10677146911621 7.65500974655151 7.25049352645874 6.64808464050293 5.49697685241699 4.73417568206787 4.37690305709839 4.00329637527466 3.75993227958679 3.55172085762024 3.45829629898071 3.36395955085754 3.3240122795105 3.20762062072754 3.00735712051392 2.73509621620178 2.56295466423035 2.10925507545471 1.73345589637756 1.45804882049561 1.13328528404236 0.847736239433289 0.766792774200439 0.67561149597168 0.661725878715515 0.643075048923492 0.635010659694672 1.05499863624573 2.00311493873596 2.42370533943176 2.89774942398071 3.010582447052 3.02000045776367 3.09087181091309 3.11577272415161 3.18259644508362 3.18408226966858 3.0819251537323 2.8528904914856 2.57235789299011 2.19896197319031 1.73757529258728 1.54493832588196 1.75682604312897 2.18540644645691 2.45335960388184 2.53188705444336 2.51611733436584 2.3865020275116 2.06815791130066 1.72286653518677 1.41033935546875 1.32436954975128 1.28194570541382 1.20958721637726 1.08337104320526 1.08036255836487 1.00012457370758 0.845980286598206 1.12053442001343 0.890761435031891 0.625055611133575 0.758900105953217 1.04336452484131 1.05180883407593 1.02648544311523 1.08170211315155 1.15443742275238 1.161288022995 1.06662213802338 1.08700942993164
6.10211992263794 6.18637084960938 6.0628514289856 5.68735074996948 5.34067010879517 4.9239821434021 4.14628076553345 3.18019795417786 1.64734494686127 0.254934817552567 -0.428915679454803 -0.527889549732208 -0.481666594743729 -0.588728845119476 -0.972215473651886 -1.38039255142212 -1.70168995857239 -2.06148982048035 -1.85344541072845 -2.17132759094238 -0.217199012637138 3.0705258846283 4.8474817276001 5.31100797653198 5.15710115432739 4.45125722885132 3.65690922737122 3.66717457771301 3.84886169433594 4.39988851547241 4.72934150695801 5.85498142242432 5.48248386383057 5.03490829467773 3.77263164520264 3.59854125976562 3.67412042617798 3.90781044960022 3.81796264648438 3.75560402870178 3.36658120155334 3.04486012458801 2.61168646812439 2.48773646354675 2.34237742424011 2.17663288116455 1.87675261497498 1.62235403060913 1.98123514652252 4.17466878890991 5.71713781356812 7.75843095779419 9.32474327087402 10.5759429931641 9.76401901245117 8.50680446624756 6.38011980056763 4.83731365203857 4.7357702255249 4.13881540298462 3.58963489532471 3.14797258377075 2.78564190864563 2.80169916152954 4.59183692932129 7.36053943634033 8.22092533111572 6.88788557052612 7.43041658401489 6.115149974823 11.9946088790894 11.3645496368408 10.8493499755859 12.4972352981567 13.9431180953979 14.1242904663086 13.6962995529175 13.1707382202148 12.116473197937 11.0379362106323 9.04959392547607 7.05342721939087 5.86901473999023 5.77851581573486 5.6715726852417 5.84267902374268 6.53980112075806 7.40258836746216 7.60244941711426 7.72166681289673 7.95817089080811 8.26223945617676 8.09199905395508 7.81957674026489 7.30314636230469 6.94740962982178 7.76598072052002 8.19342994689941 8.37715435028076 8.24890518188477 7.96671915054321 7.46773290634155 7.10217046737671 6.62371730804443 6.08060884475708 4.77762174606323 4.37582445144653 4.12270975112915 3.86152529716492 3.56237077713013 3.36681652069092 3.28556561470032 3.19337773323059 3.16411423683167 3.06375575065613 2.87903761863708 2.61569786071777 2.45695781707764 2.01792502403259 1.58290505409241 1.18698823451996 0.93229740858078 0.821837723255157 0.73485666513443 0.658081889152527 0.584725379943848 0.575944483280182 0.567155838012695 1.47380101680756 2.21854090690613 2.65658330917358 2.7794771194458 2.89344048500061 2.90559434890747 2.97337031364441 2.99047350883484 3.06926155090332 3.06486535072327 2.97702145576477 2.78665351867676 2.48386859893799 2.1257655620575 1.68096077442169 1.38645994663239 1.56849575042725 1.96014702320099 2.19162368774414 2.26786971092224 2.25902462005615 2.13667941093445 1.85571551322937 1.5437867641449 1.27149343490601 1.14840483665466 1.05189228057861 1.05102956295013 0.992863833904266 0.976956903934479 0.903430759906769 0.834314107894897 0.783295214176178 0.615869045257568 0.446169048547745 0.501048922538757 0.727493166923523 0.743628084659576 0.817970275878906 0.909759104251862 1.05719101428986 1.04098463058472 0.95356160402298
5.98475217819214 5.88618230819702 5.7303729057312 5.56963109970093 5.34082221984863 4.96476745605469 4.17684698104858 3.24269437789917 1.3173394203186 -0.160687923431396 -0.872412860393524 -0.89519852399826 -0.852298498153687 -0.830585420131683 -0.827459871768951 -1.08719515800476 -1.4312344789505 -1.88901591300964 -2.24287676811218 -2.3150942325592 -1.43412375450134 1.38480293750763 3.84580683708191 4.09702301025391 4.04706811904907 3.91636872291565 3.57760691642761 3.03526830673218 3.07352137565613 3.20735740661621 3.034010887146 2.3039984703064 1.85170352458954 1.93989729881287 2.11940979957581 2.43019556999207 2.6052393913269 2.75605225563049 3.0150134563446 3.04228520393372 2.91304111480713 2.50519275665283 2.13278746604919 2.0967915058136 2.10020756721497 1.90024542808533 1.6858377456665 1.60575878620148 3.31528496742249 5.42277336120605 6.48780202865601 8.61365032196045 10.3632154464722 9.52714920043945 8.48254871368408 6.88169813156128 4.81763410568237 3.72420716285706 3.84053063392639 3.80240106582642 3.53544092178345 3.37578320503235 3.14785242080688 3.5486843585968 4.95460367202759 7.10739040374756 10.8876295089722 8.20065689086914 12.1219606399536 11.4170894622803 15.5041189193726 11.6460294723511 11.1914749145508 13.0991277694702 14.0061264038086 12.5635948181152 12.0170373916626 11.0698251724243 10.5865879058838 9.6450719833374 8.71417617797852 7.61645984649658 5.92452764511108 5.47422170639038 5.40076923370361 5.39174365997314 5.53695440292358 5.91512155532837 6.62118434906006 6.87414503097534 6.99804306030273 7.17352819442749 7.49539661407471 7.38409423828125 7.12573671340942 6.72668123245239 6.35704135894775 7.11844968795776 7.51092195510864 7.72004652023315 7.58475780487061 7.36970853805542 6.92513847351074 6.53185844421387 6.13241529464722 5.0415678024292 4.51542043685913 4.09719705581665 3.86945462226868 3.64085292816162 3.38456773757935 3.19846153259277 3.12910985946655 3.04282355308533 3.0221471786499 2.92936110496521 2.76000928878784 2.50801849365234 1.98914408683777 1.62456667423248 1.37241315841675 1.13351476192474 0.89678281545639 0.796182036399841 0.711135625839233 0.599847853183746 0.550124764442444 0.526981115341187 0.979429662227631 1.88715839385986 2.27543258666992 2.54599285125732 2.6832959651947 2.78487062454224 2.78916025161743 2.85845923423767 2.88449263572693 2.95122790336609 2.96002388000488 2.89519643783569 2.69631671905518 2.39969849586487 2.05706095695496 1.62860906124115 1.25598084926605 1.42445087432861 1.77186584472656 1.98745286464691 2.05517649650574 2.03041815757751 1.92223477363586 1.66529810428619 1.40521454811096 1.11547005176544 0.947076380252838 0.953313052654266 0.943165719509125 0.903533935546875 0.881788492202759 0.870147049427032 0.77516371011734 0.612317860126495 0.433703601360321 0.329268991947174 0.427736878395081 0.53610223531723 0.642773866653442 0.756515681743622 0.900637149810791 0.895066142082214 0.889618694782257
5.77790021896362 5.57803249359131 5.48045063018799 5.38432788848877 5.92138338088989 4.99477243423462 4.15413188934326 3.25282287597656 1.08653938770294 -0.396551728248596 -0.900266826152802 -1.32642710208893 -1.21470332145691 -1.21301209926605 -1.08163166046143 -0.971557974815369 -1.13245749473572 -1.56812691688538 -2.06202721595764 -2.31763505935669 -2.3426628112793 -0.144008010625839 2.39836144447327 3.33858418464661 3.66522240638733 3.74912095069885 3.23010611534119 2.86037397384644 2.72953319549561 2.94361400604248 2.69274091720581 1.70627999305725 1.20728027820587 1.07305216789246 0.949607074260712 1.16073739528656 1.50724387168884 1.39932715892792 1.18890988826752 1.21643424034119 1.43396294116974 1.45146822929382 1.43192923069 1.48594486713409 1.5848023891449 1.55569326877594 1.53354334831238 1.73028814792633 3.54531669616699 7.09875392913818 8.79701328277588 10.5691576004028 10.4974899291992 8.49225425720215 7.62328147888184 6.24958610534668 4.52238702774048 3.65612745285034 3.36191058158875 3.29988598823547 2.9788601398468 2.86581540107727 3.05465793609619 3.06325054168701 3.86189770698547 5.87429428100586 11.4608507156372 11.7911653518677 15.3862600326538 15.5737228393555 16.0304851531982 14.749400138855 12.9501075744629 12.5182991027832 11.6711320877075 11.0989112854004 10.0930080413818 9.71875953674316 9.20849227905273 8.72836875915527 7.94781255722046 7.30478763580322 6.44823598861694 5.46651697158813 5.14938306808472 5.1109504699707 5.07244825363159 5.18142127990723 5.48138046264648 6.08095359802246 6.25766277313232 6.37170267105103 6.51166868209839 6.85799121856689 6.81615781784058 6.59830188751221 6.26057577133179 5.86445283889771 6.55834293365479 6.91435718536377 7.15562534332275 7.02541446685791 6.83157634735107 6.36324405670166 5.93954277038574 5.51671648025513 4.76348161697388 4.25765657424927 3.82179236412048 3.68973636627197 3.48495364189148 3.21495819091797 3.04487252235413 2.98803067207336 2.90581250190735 2.89167714118958 2.81068444252014 2.53032660484314 2.30471110343933 1.89485394954681 1.55879807472229 1.31456851959229 1.10179245471954 0.859660387039185 0.767154514789581 0.645320951938629 0.571281433105469 0.512861788272858 0.491565555334091 0.940329253673553 1.81043243408203 2.19453644752502 2.45637631416321 2.58351230621338 2.67184472084045 2.68699336051941 2.76859450340271 2.78865718841553 2.86366772651672 2.88189744949341 2.80649209022522 2.60903239250183 2.32182669639587 1.99369251728058 1.5780154466629 1.14357650279999 1.30162048339844 1.62474358081818 1.81559872627258 1.88032138347626 1.8554368019104 1.76007342338562 1.52384960651398 1.20437896251678 0.990935742855072 0.873534023761749 0.866095781326294 0.85541832447052 0.827980220317841 0.810304403305054 0.797767877578735 0.714052557945251 0.572308123111725 0.391351968050003 0.39228954911232 0.426166564226151 0.519885540008545 0.595746099948883 0.655499935150146 0.757850885391235 0.776971817016602
5.62589120864868 5.39609098434448 5.48547458648682 6.9157977104187 5.39315271377563 4.99459934234619 4.19096088409424 3.20232963562012 0.978664934635162 -0.611529946327209 -0.960568368434906 -1.34311282634735 -1.62161958217621 -1.45110392570496 -1.43541097640991 -1.23164594173431 -1.0437034368515 -1.17927980422974 -1.6390939950943 -2.11919808387756 -0.753482162952423 -0.85362982749939 0.629049301147461 1.79624879360199 3.07647109031677 3.4706494808197 3.27462649345398 2.57957482337952 2.50164127349854 2.68211698532104 2.35548853874207 1.80257320404053 1.2894538640976 1.00411880016327 0.806073725223541 0.711521565914154 0.674562633037567 0.379166930913925 0.239049762487411 0.136049911379814 0.134404003620148 0.37224155664444 0.703870832920074 0.963272929191589 1.24568629264832 1.37208819389343 1.58007824420929 5.40827894210815 7.30500984191895 11.9447107315063 12.9099922180176 13.733362197876 10.0939207077026 7.67898988723755 6.99715280532837 6.3025074005127 4.8559250831604 3.90972328186035 3.393310546875 2.94481062889099 2.63657712936401 2.58958530426025 3.79212164878845 6.44686985015869 8.06290626525879 12.3015947341919 19.8178825378418 16.1646194458008 16.0764713287354 14.9340496063232 14.5774250030518 14.6422805786133 13.5039196014404 11.1047334671021 9.81582546234131 9.37594604492188 9.17730522155762 8.83409214019775 8.22447681427002 7.97681379318237 7.59822750091553 7.14963006973267 6.34047603607178 5.95018720626831 5.12394428253174 4.84822750091553 4.82304430007935 4.80165481567383 4.86637401580811 5.07559633255005 5.59058284759521 5.71993446350098 5.87225961685181 6.00746822357178 6.38116264343262 6.37392330169678 6.13472414016724 5.83219003677368 5.44628620147705 6.07383394241333 6.43525552749634 6.66349935531616 6.57659912109375 6.25503206253052 5.92649507522583 5.56918144226074 5.19470262527466 4.51162385940552 4.06325054168701 3.71727061271667 3.58661866188049 3.32754397392273 3.05461406707764 2.89514231681824 2.84937286376953 2.77683424949646 2.77124524116516 2.59279036521912 2.35294818878174 2.21707773208618 1.81963217258453 1.50376117229462 1.276038646698 1.05881547927856 0.808845937252045 0.683750927448273 0.6134934425354 0.539730966091156 0.479536235332489 0.431954890489578 0.907245337963104 1.74037683010101 2.09947490692139 2.36187839508057 2.47363138198853 2.58333587646484 2.60423707962036 2.67452692985535 2.70130300521851 2.78335428237915 2.78845858573914 2.71551156044006 2.53108477592468 2.25324821472168 1.93207669258118 1.52623891830444 1.08197438716888 1.19242930412292 1.47820091247559 1.65924775600433 1.71944081783295 1.70480120182037 1.56598269939423 1.31816053390503 1.1307567358017 0.923114895820618 0.809965491294861 0.797182261943817 0.787199020385742 0.769644379615784 0.753033995628357 0.742446780204773 0.671614050865173 0.529367506504059 0.281737297773361 0.332684397697449 0.406470030546188 0.449196457862854 0.513112902641296 0.574282884597778 0.673849403858185
5.95941352844238 9.33796691894531 8.74155521392822 5.4615626335144 5.25436019897461 4.90592050552368 4.2042818069458 3.12209701538086 0.556538581848145 -0.608155131340027 -1.12364494800568 -1.24182522296906 -1.4454892873764 -1.63197028636932 -1.59939420223236 -1.53109955787659 -1.29564166069031 -1.11551511287689 -1.19654905796051 -1.65943026542664 2.50668048858643 2.89487433433533 1.5442134141922 0.695747852325439 5.99523591995239 3.75286293029785 3.21786117553711 2.83749628067017 2.40122818946838 3.91426062583923 2.55375599861145 1.90674066543579 1.53627049922943 1.1939811706543 0.805071294307709 0.74320912361145 0.439210385084152 0.0278328787535429 -0.0805836096405983 -0.287615776062012 -0.273960828781128 -0.0182131268084049 0.281805336475372 0.475976943969727 0.800774157047272 1.1864812374115 2.63045740127563 4.17236280441284 5.09144306182861 6.80785274505615 11.1348123550415 11.5324687957764 10.2262353897095 7.91343832015991 6.4689884185791 5.91571998596191 5.03488731384277 4.10491371154785 3.55423188209534 3.18235802650452 2.77383422851562 2.73054075241089 6.28622579574585 8.84870147705078 14.5872182846069 17.4289169311523 18.673511505127 15.8996686935425 15.5717287063599 14.7013149261475 13.4539661407471 12.3099584579468 11.5025930404663 10.8809204101562 9.0931921005249 8.59178733825684 8.19933414459229 7.87195730209351 7.74285459518433 7.25404167175293 7.1619725227356 6.8407130241394 6.51868915557861 5.8283576965332 5.53149747848511 4.85059881210327 4.59938859939575 4.55755186080933 4.52842998504639 4.56129789352417 4.71209049224854 5.18838977813721 5.32847833633423 5.50799179077148 5.66254377365112 6.00047540664673 5.96631860733032 5.72288942337036 5.13214492797852 5.39807510375977 6.1296591758728 6.35377740859985 6.26704168319702 6.16018962860107 5.88213157653809 5.58078956604004 5.24512529373169 4.91511058807373 4.30638360977173 3.89853310585022 3.57630109786987 3.44566297531128 3.17556142807007 2.90775680541992 2.76225972175598 2.72719717025757 2.70387864112854 2.63594722747803 2.4919445514679 2.26313400268555 2.1356303691864 1.75393164157867 1.44995224475861 1.22791302204132 0.986166298389435 0.770138204097748 0.653385818004608 0.591155230998993 0.521187961101532 0.463545709848404 0.417822182178497 0.873194634914398 1.68065583705902 2.02137660980225 2.27324962615967 2.40299797058105 2.48915123939514 2.53353214263916 2.59239101409912 2.62848281860352 2.69501686096191 2.691490650177 2.62751364707947 2.4518346786499 2.18006682395935 1.87544357776642 1.48344814777374 0.964868366718292 1.09963309764862 1.3739618062973 1.53439676761627 1.57974398136139 1.47888195514679 1.42366302013397 1.24723160266876 1.05445837974548 0.856085538864136 0.746889352798462 0.73418778181076 0.726787090301514 0.726854085922241 0.723465263843536 0.649524509906769 0.530007064342499 0.320749908685684 0.242895498871803 0.294412434101105 0.347407281398773 0.384878754615784 0.446384936571121 0.499896317720413
8.32269859313965 5.89010238647461 5.53701877593994 5.24767684936523 5.09118843078613 4.74657154083252 4.14999151229858 2.93374276161194 0.815130233764648 -0.468341588973999 -0.91564279794693 -1.24364531040192 -1.33659970760345 -1.55411207675934 -1.72006893157959 -1.65017461776733 -0.610061228275299 -1.30974209308624 -0.519040405750275 0.371010303497314 2.97682118415833 6.6381778717041 2.63079476356506 3.26194834709167 5.30371809005737 3.85189747810364 3.02826356887817 2.89996242523193 2.7564959526062 3.45420265197754 3.30022811889648 2.24239158630371 1.70618951320648 1.37584209442139 1.82054090499878 2.29312062263489 0.490252017974854 0.0550207383930683 -0.136060059070587 -0.251920104026794 -0.356600880622864 3.83993530273438 3.47123742103577 1.90674614906311 2.63666486740112 4.8637228012085 3.57046890258789 3.41422176361084 3.68558025360107 5.37616777420044 11.2518129348755 10.7473211288452 10.0259370803833 8.13523864746094 5.58265447616577 4.76790904998779 4.48075723648071 4.0321249961853 3.66162276268005 3.36429810523987 3.08786129951477 4.07569217681885 7.2434778213501 12.6206703186035 19.427848815918 16.5292625427246 16.0481243133545 14.8651084899902 15.2432918548584 13.8054752349854 11.8096084594727 11.046404838562 10.3217372894287 9.46225357055664 8.89987850189209 7.43130540847778 7.33356904983521 7.16984272003174 7.09177112579346 6.95061254501343 6.57052850723267 6.47121238708496 6.16629457473755 6.00144243240356 5.49623537063599 5.2202033996582 4.60042333602905 4.36659479141235 4.30775165557861 4.26881217956543 4.29946565628052 4.47270345687866 4.88888359069824 5.03363418579102 5.2435827255249 5.45546197891235 5.70701503753662 5.46828079223633 5.23264169692993 4.89593410491943 5.38081169128418 5.75822019577026 5.96581697463989 5.86065816879272 5.77808666229248 5.51758193969727 5.25886344909668 4.95291519165039 4.64457845687866 4.08788299560547 3.69834303855896 3.40952062606812 3.2935049533844 3.03834104537964 2.79396319389343 2.66110849380493 2.58532285690308 2.58788275718689 2.53188347816467 2.39954948425293 2.18187475204468 2.06134009361267 1.68718671798706 1.36896967887878 1.14764964580536 0.958118200302124 0.748266637325287 0.631995260715485 0.571194767951965 0.507272899150848 0.430651545524597 0.387312859296799 0.841185092926025 1.62305068969727 1.95641720294952 2.19317436218262 2.33145093917847 2.42515683174133 2.45076489448547 2.5244734287262 2.55001616477966 2.6118540763855 2.60799145698547 2.54199147224426 2.3697817325592 2.10887360572815 1.60192728042603 0.895074486732483 0.890317916870117 1.13357722759247 1.36689567565918 1.40069937705994 1.38582015037537 1.39636695384979 1.32094609737396 1.12978374958038 0.889847993850708 0.748573422431946 0.694753706455231 0.688985288143158 0.686987936496735 0.681832611560822 0.680009603500366 0.604247570037842 0.500514268875122 0.296959489583969 0.21071083843708 0.256516188383102 0.295025378465652 0.342035323381424 0.388371616601944
6.31867122650146 5.77582216262817 5.33903837203979 5.12159109115601 4.86927938461304 4.56312465667725 4.02193403244019 3.01909017562866 1.01241946220398 -0.121571846306324 -0.773880660533905 -1.00336480140686 -1.25435221195221 -1.39995539188385 -1.62541520595551 -1.74792802333832 0.275115370750427 2.0722234249115 2.88986420631409 0.982684135437012 -0.584360539913177 4.11334466934204 5.08748531341553 6.64894676208496 6.13014268875122 2.79254460334778 3.06579351425171 2.87045240402222 2.81055879592896 2.60526204109192 2.35406851768494 2.35288667678833 1.92676877975464 1.51614558696747 2.73100328445435 3.13690280914307 0.643842279911041 0.290271908044815 0.0258566774427891 0.517050743103027 1.10724818706512 5.4275598526001 5.64296817779541 8.9147424697876 10.9640836715698 12.5919504165649 7.80057048797607 8.13889312744141 9.84283638000488 14.5212488174438 19.0241069793701 13.2164239883423 9.55000972747803 6.98300790786743 4.19121742248535 3.33402848243713 3.64840960502625 3.8146493434906 3.78757858276367 3.62559604644775 3.89697360992432 5.19036531448364 10.7365989685059 21.9779357910156 21.2464828491211 17.9622383117676 15.485936164856 14.9637107849121 13.9668989181519 13.3774881362915 11.4035444259644 9.93688583374023 9.4638614654541 8.68518543243408 8.22646808624268 7.19054079055786 6.63586330413818 6.63444566726685 6.43727540969849 6.42209005355835 6.32973194122314 6.0222692489624 5.9045352935791 5.70697593688965 5.64438819885254 5.19869136810303 4.93755722045898 4.37774515151978 4.14899301528931 4.07196712493896 4.04821586608887 4.33362102508545 4.35709285736084 4.64124011993408 4.803955078125 5.24665832519531 5.53234958648682 5.53714561462402 5.3205943107605 5.03124523162842 4.64562940597534 5.08212852478027 5.44061899185181 5.61391687393188 5.50660371780396 5.46686935424805 5.23591804504395 4.97022724151611 4.66480875015259 4.39863157272339 3.89635133743286 3.54846906661987 3.26290512084961 3.15478587150574 2.81717872619629 2.58222007751465 2.54991364479065 2.47615027427673 2.48673629760742 2.44034934043884 2.31707119941711 2.10386252403259 1.98056256771088 1.58795595169067 1.31873190402985 1.11412799358368 0.926945388317108 0.724391043186188 0.607355892658234 0.523117542266846 0.44102218747139 0.3655124604702 0.347448647022247 0.808370232582092 1.56557023525238 1.88816869258881 2.14249396324158 2.26193332672119 2.34815549850464 2.38473534584045 2.44503021240234 2.47052788734436 2.53058218955994 2.52436757087708 2.46444439888 2.24541401863098 1.61877608299255 0.912008762359619 0.852217435836792 0.964877247810364 1.20350813865662 1.26954615116119 1.360276222229 1.34896886348724 1.27509868144989 1.12973511219025 0.948749244213104 0.770895659923553 0.675326764583588 0.659895539283752 0.650845408439636 0.639835596084595 0.634841680526733 0.637173771858215 0.576098263263702 0.466884016990662 0.280642300844193 0.180485114455223 0.230693385004997 0.265922725200653 0.306508213281631
6.24723100662231 5.71559190750122 5.3296332359314 4.94682788848877 4.64801120758057 4.3142032623291 3.80376434326172 3.06895852088928 1.24926197528839 0.0390840768814087 -0.374175608158112 -0.850793719291687 -1.04398381710052 -1.33011543750763 -1.56679260730743 -1.69748079776764 -1.76948940753937 3.38461422920227 4.84103202819824 3.81693315505981 1.31133627891541 2.07619786262512 3.69483399391174 3.89808249473572 3.4354350566864 3.73197221755981 3.14395236968994 3.04604649543762 2.81573724746704 2.67437672615051 2.52190065383911 2.2412691116333 2.1333532333374 1.71290552616119 4.09816122055054 3.87622451782227 1.76220393180847 0.544259428977966 1.20876502990723 6.17899179458618 8.66599369049072 10.7333536148071 14.1578874588013 15.5376310348511 14.238429069519 15.0624141693115 14.0017614364624 16.1093940734863 16.5671081542969 17.9906234741211 16.1618576049805 13.1335029602051 8.44614505767822 5.55453872680664 3.13363337516785 2.57229804992676 2.96465730667114 3.44007182121277 3.77614259719849 3.72722554206848 4.28664541244507 9.3721981048584 19.3908500671387 21.6340026855469 18.9348373413086 18.9075870513916 16.5905513763428 14.0936403274536 13.4473676681519 11.9431238174438 11.2265319824219 9.50234127044678 8.51282978057861 8.36780071258545 7.67515993118286 7.22011184692383 6.47175312042236 6.0476016998291 6.05067348480225 5.93413543701172 5.97139310836792 5.80532026290894 5.56970548629761 5.53510522842407 5.38088703155518 5.33980846405029 4.93686437606812 4.67824649810791 4.15322637557983 3.94379663467407 3.94529438018799 3.97534918785095 4.16652202606201 4.19904088973999 4.67721939086914 4.9370379447937 5.12557506561279 5.41340589523315 5.35717582702637 5.08063507080078 4.81442356109619 4.44386959075928 4.84590816497803 5.16240692138672 5.30740594863892 5.21919965744019 5.16727828979492 4.95649385452271 4.70912790298462 4.43136739730835 4.18701648712158 3.72492051124573 3.40462493896484 3.14299941062927 2.8536581993103 2.61390161514282 2.47064781188965 2.45110654830933 2.38769221305847 2.40093469619751 2.35600686073303 2.23628163337708 1.99241626262665 1.88563060760498 1.5420697927475 1.27809822559357 1.07723200321198 0.897113978862762 0.699689269065857 0.564629018306732 0.42544761300087 0.345739722251892 0.332803279161453 0.305985480546951 0.784936606884003 1.51406300067902 1.84056890010834 2.07478308677673 2.19069576263428 2.27816796302795 2.31010937690735 2.3686511516571 2.3853816986084 2.44620180130005 2.44415473937988 2.2904851436615 1.67734587192535 0.860533595085144 0.725753724575043 0.779163300991058 0.859718799591064 1.06170392036438 1.23097681999207 1.27384281158447 1.2616800069809 1.19170737266541 1.05506253242493 0.888899624347687 0.722300410270691 0.629209339618683 0.613683998584747 0.608377456665039 0.604065299034119 0.605864703655243 0.603609204292297 0.544292569160461 0.444606989622116 0.265840709209442 0.16124202311039 0.19607612490654 0.224901512265205
5.99022006988525 5.69014978408813 5.32334995269775 4.95388221740723 4.48013877868652 4.06360006332397 3.51958107948303 2.8914167881012 1.64322793483734 0.323842734098434 -0.162015721201897 -0.558411359786987 -0.997335195541382 -1.27672243118286 -1.4900358915329 -1.63432884216309 -1.72207427024841 4.64953231811523 6.25650548934937 6.20856809616089 5.33622026443481 4.98815727233887 4.59329557418823 3.54577803611755 3.60701370239258 3.49851083755493 2.95167279243469 2.78696990013123 2.97919869422913 2.79054951667786 2.57756161689758 2.43459320068359 2.21445846557617 2.94331550598145 6.33745050430298 5.07610940933228 2.93425011634827 1.66731679439545 6.81427192687988 11.9464483261108 11.1219329833984 10.5613164901733 13.7909545898438 14.8322353363037 15.8645906448364 17.0255546569824 17.25514793396 16.9248065948486 16.657154083252 15.8878164291382 13.5745544433594 11.1142625808716 7.7293529510498 4.78879165649414 3.29323959350586 2.83760690689087 3.28409242630005 2.95338606834412 3.62246251106262 3.70464420318604 6.90811538696289 17.6219062805176 18.9448699951172 17.7281074523926 18.6448554992676 17.5004730224609 16.651891708374 14.639591217041 12.7014284133911 11.480996131897 10.4593906402588 9.29402256011963 8.5596284866333 7.78992080688477 7.4929404258728 6.85879850387573 6.45358657836914 5.92591667175293 5.59117317199707 5.55577850341797 5.45456886291504 5.52885913848877 5.39386320114136 5.25573301315308 5.26100492477417 5.1215672492981 5.08497476577759 4.70004415512085 4.43218803405762 3.95014786720276 3.77742075920105 3.78133702278137 3.84029603004456 4.06286334991455 4.40529251098633 4.59628009796143 4.81898355484009 4.96741676330566 5.16607713699341 5.12180328369141 4.85233211517334 4.61784315109253 4.24697971343994 4.57912111282349 4.8920750617981 5.03095626831055 4.95414257049561 4.90612745285034 4.71804141998291 4.48055219650269 4.22650766372681 4.00415086746216 3.58544158935547 3.21541929244995 2.96376323699951 2.73682546615601 2.51115465164185 2.36802935600281 2.35393357276917 2.30442523956299 2.31491875648499 2.24413776397705 2.11685299873352 1.92630326747894 1.82949697971344 1.49653029441833 1.23938143253326 1.04467594623566 0.871529102325439 0.651166498661041 0.471639096736908 0.315797328948975 0.308644980192184 0.291434168815613 0.291552275419235 0.761287271976471 1.4665287733078 1.78163993358612 2.01026487350464 2.12316966056824 2.20369815826416 2.14489364624023 2.09061431884766 2.2369110584259 2.2301127910614 2.01369190216064 1.36406552791595 0.895244240760803 0.640980899333954 0.658669650554657 0.661857008934021 0.800796031951904 1.02689480781555 1.15306484699249 1.19783508777618 1.19008576869965 1.11567223072052 0.993095993995667 0.839821934700012 0.682908952236176 0.599128782749176 0.579847753047943 0.574577152729034 0.571363091468811 0.573484539985657 0.573900759220123 0.512624263763428 0.421365976333618 0.252109676599503 0.147377982735634 0.177264913916588
5.76736402511597 5.51237630844116 5.2983922958374 4.96834087371826 4.4582986831665 3.92113041877747 3.3178858757019 2.74962759017944 1.91539204120636 0.480635285377502 0.00892983563244343 -0.379554688930511 -0.967446386814117 -1.15661227703094 -1.37558710575104 -1.46845924854279 -1.17719268798828 5.21345329284668 7.69446563720703 8.28780841827393 9.02649784088135 7.42323589324951 5.59921026229858 3.18249130249023 3.87278008460999 3.87339639663696 3.584721326828 3.9335081577301 5.74612808227539 3.90512681007385 2.71138453483582 3.62977433204651 4.72095632553101 4.06458234786987 3.91626048088074 4.16969156265259 3.47391295433044 3.62490630149841 7.41320610046387 6.80873870849609 10.7767333984375 11.4055805206299 13.4182949066162 14.2973470687866 17.9276180267334 17.7222442626953 16.6065807342529 15.8637323379517 15.219425201416 14.5791244506836 12.4614000320435 9.6487865447998 7.83544492721558 4.68425273895264 3.93337535858154 6.84219264984131 8.0709924697876 5.82837295532227 5.18365907669067 5.90657997131348 15.1680850982666 20.1955146789551 16.05397605896 16.841869354248 16.7209320068359 16.9425525665283 16.196683883667 14.6009349822998 12.8574209213257 10.822943687439 9.9012975692749 9.29559803009033 8.35248565673828 7.67513179779053 7.04081249237061 6.78462553024292 6.38050937652588 5.83559989929199 5.36869096755981 5.13084363937378 5.16596984863281 5.06931257247925 5.17979192733765 5.09542942047119 5.03851890563965 5.05322456359863 4.88501405715942 4.82920408248901 4.46688079833984 4.20686435699463 3.682461977005 3.61394643783569 3.66623902320862 3.75385046005249 3.99703288078308 4.30975866317749 4.46197128295898 4.62303781509399 4.74362945556641 4.91641330718994 4.88011884689331 4.61614894866943 4.369140625 4.0266580581665 4.33594560623169 4.6461296081543 4.77716588973999 4.71902370452881 4.6726655960083 4.50455904006958 4.27638530731201 4.0280966758728 3.84311819076538 3.33012843132019 2.96308827400208 2.84794402122498 2.63122320175171 2.40696978569031 2.27550101280212 2.25634574890137 2.21957683563232 2.17285799980164 2.15847778320312 2.05880951881409 1.86769247055054 1.77168869972229 1.44890868663788 1.20191085338593 1.01241397857666 0.781650841236115 0.509420990943909 0.313526719808578 0.269960552453995 0.258116185665131 0.26136302947998 0.255022585391998 0.736798942089081 1.41694462299347 1.72238230705261 1.94219613075256 2.01847839355469 1.68644320964813 1.61676371097565 1.75383424758911 1.82014131546021 1.58461940288544 1.08188140392303 0.977436721324921 0.827816784381866 0.565758943557739 0.576641857624054 0.652868866920471 0.745048820972443 0.953860759735107 1.09254682064056 1.12993085384369 1.11833465099335 1.05864667892456 0.944183349609375 0.796156644821167 0.647084712982178 0.565797924995422 0.547082245349884 0.541902542114258 0.542318224906921 0.544965028762817 0.5420783162117 0.487968623638153 0.397294610738754 0.234428480267525 0.11993944644928
5.47623491287231 5.34675741195679 5.15843868255615 4.94980239868164 4.43400812149048 3.87310576438904 3.29349422454834 2.68612241744995 1.98277044296265 0.726314604282379 0.172289818525314 -0.265283733606339 -0.657700538635254 0.117071114480495 -0.102871924638748 -0.397031396627426 0.99044793844223 6.09203863143921 10.0970764160156 10.7885437011719 12.0056991577148 8.82107639312744 5.87551784515381 2.95286583900452 2.69040060043335 3.6802704334259 3.95429515838623 5.83246469497681 9.56481838226318 9.50198841094971 5.93005084991455 5.05140161514282 4.80917072296143 3.84090662002563 3.3625226020813 2.79183793067932 3.24264049530029 3.32320332527161 3.79292964935303 5.90129470825195 13.217321395874 14.883113861084 15.3338069915771 16.9476833343506 19.7528839111328 16.4286727905273 15.2336339950562 14.5318756103516 14.0968704223633 12.9297485351562 12.1095371246338 10.2627573013306 8.30296897888184 6.6654748916626 8.36544895172119 14.9124135971069 14.7177019119263 14.6549205780029 17.8375434875488 21.3787536621094 22.1053409576416 17.0721187591553 16.9344730377197 15.3132352828979 16.0828247070312 15.815749168396 15.5120983123779 14.2766761779785 12.560643196106 10.6047487258911 9.54690933227539 8.77648067474365 8.1196174621582 7.48938703536987 7.05907869338989 6.54289388656616 6.25253438949585 5.88972806930542 5.39769506454468 5.06320953369141 4.8302698135376 4.84149551391602 4.81801414489746 4.94636011123657 4.88271331787109 4.83998203277588 4.82178688049316 4.64505958557129 4.5793924331665 4.11659717559814 3.65994167327881 3.51895093917847 3.50432658195496 3.60259056091309 3.6946280002594 3.88216400146484 4.12993144989014 4.25913381576538 4.40032768249512 4.50520658493042 4.6596508026123 4.62414264678955 4.39008092880249 4.16080236434937 3.83030343055725 4.11352634429932 4.40927076339722 4.53371620178223 4.48433017730713 4.44690799713135 4.3025074005127 4.1011848449707 3.86087870597839 3.68583250045776 3.0807032585144 2.8465723991394 2.72993540763855 2.52828192710876 2.30713677406311 2.18606042861938 2.13447856903076 2.09433364868164 2.11937284469604 2.08706665039062 1.987384557724 1.80596697330475 1.71785640716553 1.40712594985962 1.0992842912674 0.774215936660767 0.475907981395721 0.295274078845978 0.244612663984299 0.230226814746857 0.216674268245697 0.216118633747101 0.239136829972267 0.716280460357666 1.37316524982452 1.65919327735901 1.55517792701721 1.26835119724274 1.31171071529388 1.29017972946167 1.36590909957886 1.04093480110168 1.04291570186615 0.94748991727829 0.897813141345978 0.727302193641663 0.52977192401886 0.553901493549347 0.614985764026642 0.71381950378418 0.911376774311066 1.03331518173218 1.07026624679565 1.05897867679596 1.00288259983063 0.894683003425598 0.747091889381409 0.613873898983002 0.536981642246246 0.515496015548706 0.512089848518372 0.515281856060028 0.518387258052826 0.517566800117493 0.457149118185043 0.364339113235474 0.20170022547245
5.35938787460327 5.08999633789062 5.03205490112305 4.84847354888916 4.48445081710815 3.85912489891052 3.34317278862 2.71005082130432 2.02321004867554 1.10917460918427 0.432232439517975 -0.0296010263264179 -0.370414435863495 -0.539188086986542 -0.287353485822678 -0.315403431653976 1.46950173377991 6.50996255874634 12.0984878540039 12.8081941604614 14.3340215682983 10.2690467834473 6.73816156387329 3.53898501396179 2.16530394554138 3.71958351135254 6.7077579498291 11.3972454071045 15.0901880264282 12.2317934036255 8.53462696075439 5.21649932861328 5.0610818862915 3.81861591339111 3.7113242149353 2.98014783859253 3.0469856262207 3.1275372505188 4.65068340301514 11.2442865371704 19.540771484375 20.2184829711914 18.2254104614258 17.445972442627 16.0679988861084 14.3294515609741 13.6006174087524 13.5679445266724 12.8238248825073 12.0510625839233 10.9313726425171 10.4861259460449 9.22848796844482 8.04017639160156 9.63466644287109 11.985089302063 12.8791618347168 12.8510055541992 13.6336660385132 16.3501434326172 18.1489810943604 18.5267772674561 15.779559135437 15.8590822219849 14.8443298339844 15.1477432250977 14.3362703323364 13.5705537796021 11.9796752929688 10.6974725723267 9.42083549499512 8.37090587615967 7.82337713241577 7.324782371521 6.83100128173828 6.51475715637207 6.0628399848938 5.77970314025879 5.51503133773804 5.14447498321533 4.73331212997437 4.57970142364502 4.61554956436157 4.61014461517334 4.72691917419434 4.65246105194092 4.62244081497192 4.59157705307007 4.40556573867798 4.08508062362671 3.85594177246094 3.50927114486694 3.43804216384888 3.43439841270447 3.46085929870605 3.50827121734619 3.69266366958618 3.91064786911011 4.0224723815918 4.15214776992798 4.2652268409729 4.42101001739502 4.39954233169556 4.18192958831787 3.96627569198608 3.63810706138611 3.89023661613464 4.18760013580322 4.3095269203186 4.27279567718506 4.22533941268921 4.11886358261108 3.91700410842896 3.69029927253723 3.22506022453308 2.94874978065491 2.72805523872375 2.61942529678345 2.42712688446045 2.20135140419006 2.05886125564575 2.05958771705627 2.02653574943542 2.0400390625 2.01470589637756 1.91904163360596 1.74252736568451 1.38523101806641 1.01422095298767 0.677166402339935 0.39912810921669 0.258614510297775 0.234989941120148 0.53619396686554 0.287469387054443 0.212900668382645 0.2186478972435 0.229397654533386 0.661775708198547 1.02093410491943 0.924908101558685 0.822861015796661 0.778042852878571 0.836529314517975 0.859392583370209 0.790678262710571 0.959182441234589 0.951539754867554 0.876610517501831 0.807273209095001 0.701995313167572 0.487475514411926 0.523705661296844 0.579441606998444 0.674384713172913 0.862146437168121 0.976169288158417 1.00981473922729 1.00410342216492 0.950187385082245 0.853677570819855 0.717380404472351 0.580215036869049 0.501452922821045 0.478209137916565 0.488820850849152 0.482209861278534 0.482733160257339 0.478220194578171 0.41717055439949 0.325433284044266
5.16057825088501 5.00599479675293 4.89361143112183 4.77183437347412 4.53005647659302 4.05910444259644 3.40045738220215 2.85354804992676 2.0773823261261 1.28911352157593 0.592710196971893 0.0937691628932953 -0.0905666872859001 0.00222164951264858 1.97418761253357 1.4052882194519 3.17625141143799 8.88162994384766 13.2737913131714 15.9379053115845 15.1172885894775 10.7737474441528 7.19564437866211 4.33511066436768 2.85920548439026 4.81663274765015 6.65226316452026 9.8206672668457 10.2668304443359 10.3225803375244 8.50128078460693 6.46178007125854 4.13750886917114 3.71515250205994 3.49970412254333 3.40144920349121 4.18909978866577 5.49685955047607 11.9395322799683 19.4068336486816 21.2073707580566 19.1461219787598 16.546802520752 13.9947156906128 12.7495946884155 12.4614973068237 12.6423540115356 12.5528259277344 11.6800346374512 10.9803342819214 10.5312051773071 9.90492153167725 9.00601577758789 7.91052341461182 7.3132209777832 8.76671981811523 11.4377193450928 13.3571653366089 15.0950593948364 16.1926231384277 16.219108581543 17.2394943237305 17.4057712554932 14.9144020080566 14.9779214859009 13.8925495147705 13.6322402954102 12.6469240188599 11.8969297409058 10.6485080718994 9.43767929077148 8.35518932342529 7.52106237411499 7.09749984741211 6.63159799575806 6.3037166595459 6.05153894424438 5.65539216995239 5.444993019104 5.27943277359009 4.9012279510498 4.44639682769775 4.3730902671814 4.39270973205566 4.39354801177979 4.50314903259277 4.48925733566284 4.43597650527954 4.25778007507324 4.17735624313354 3.90260434150696 3.70353484153748 3.37222647666931 3.27020311355591 3.22430419921875 3.25422596931458 3.31286835670471 3.49923205375671 3.67789769172668 3.80584764480591 3.93254733085632 4.05707740783691 4.19009017944336 4.18279933929443 3.98210787773132 3.76445937156677 3.45583319664001 3.6948504447937 3.99679088592529 4.10048389434814 4.08395147323608 4.03698921203613 3.82525634765625 3.59057235717773 3.41909837722778 3.08159470558167 2.8278591632843 2.61790633201599 2.50355362892151 2.31869745254517 2.09853315353394 1.98393404483795 1.97475850582123 1.9394199848175 1.94095170497894 1.911456823349 1.72713792324066 1.33010673522949 0.918916165828705 0.565266966819763 0.342725664377213 0.208418861031532 0.216253727674484 0.207736194133759 0.301779329776764 0.185414880514145 0.175612062215805 0.167809724807739 0.222511231899261 0.407204657793045 0.477202385663986 0.489127695560455 0.432675838470459 0.951696157455444 0.43879422545433 0.494797974824905 0.725839078426361 0.923316955566406 0.907240211963654 0.868966996669769 0.789492845535278 0.656002819538116 0.451943218708038 0.49080690741539 0.546022534370422 0.636418521404266 0.815199613571167 0.922021567821503 0.951920390129089 0.949707865715027 0.89559942483902 0.809956014156342 0.684417486190796 0.553720474243164 0.474248886108398 0.453809767961502 0.451869904994965 0.449244141578674 0.451784163713455 0.439396530389786 0.370427280664444
5.31708860397339 4.87342262268066 4.67385959625244 4.6555290222168 4.50845527648926 4.13111543655396 3.61582803726196 2.94607996940613 2.29785537719727 1.3570442199707 0.711091339588165 0.287617474794388 0.0248036999255419 -0.153437077999115 -0.0388692021369934 0.410660058259964 2.32542705535889 9.4804515838623 12.3034391403198 15.0337858200073 13.6070251464844 10.625750541687 6.8529372215271 4.82286357879639 3.70568251609802 5.33600950241089 8.7691068649292 9.83388996124268 8.02659797668457 7.70250988006592 7.08521509170532 5.58437585830688 3.63817882537842 3.3390212059021 3.31122159957886 3.46475195884705 4.2963080406189 4.88069629669189 9.01954460144043 15.0466499328613 18.1554489135742 17.3258609771729 15.3155918121338 12.7528810501099 11.1891574859619 10.4751710891724 10.762228012085 11.1993560791016 10.9277544021606 10.0676441192627 9.84409236907959 9.4100227355957 8.78153800964355 7.8913688659668 7.30063676834106 10.419548034668 13.4948291778564 15.5793514251709 15.2750720977783 15.1644773483276 15.4165744781494 15.5213871002197 16.0627708435059 15.8007164001465 14.160174369812 13.6407146453857 12.581033706665 11.9681529998779 11.0025749206543 10.4408483505249 9.37776470184326 8.39367771148682 7.55211114883423 6.89963579177856 6.50642728805542 6.07116556167603 5.86838865280151 5.68047904968262 5.37036037445068 5.22019004821777 4.89346837997437 4.56924772262573 4.26217603683472 4.13879156112671 4.26236534118652 4.37137651443481 4.29759502410889 4.26638507843018 4.20409345626831 4.05517148971558 3.97731304168701 3.6827712059021 3.47025728225708 3.16141748428345 3.08065629005432 3.05156683921814 3.09151172637939 3.14702463150024 3.32608962059021 3.47710847854614 3.61472988128662 3.72480130195618 3.84529685974121 3.9722113609314 3.97132086753845 3.78809309005737 3.5816855430603 3.34718775749207 3.53674459457397 3.84880590438843 3.96131420135498 3.93482637405396 3.81060838699341 3.67055630683899 3.43707489967346 3.26339602470398 2.95601963996887 2.70763897895813 2.50272512435913 2.39895725250244 2.21573615074158 2.00921607017517 1.89287984371185 1.86810255050659 1.80111277103424 1.79029214382172 1.55966591835022 1.18658804893494 0.801362097263336 0.473482191562653 0.3175950050354 0.188949510455132 0.192228063941002 0.182312905788422 0.179113566875458 0.158661037683487 0.348601490259171 0.145575016736984 0.137631222605705 0.192085042595863 0.273047238588333 0.266508340835571 0.293034255504608 0.758098542690277 0.239263087511063 0.13654038310051 0.510115921497345 0.686982274055481 0.829061031341553 0.848597884178162 0.809078335762024 0.76694792509079 0.646272897720337 0.432569652795792 0.466610610485077 0.513465464115143 0.601277887821198 0.763050019741058 0.861692488193512 0.903196454048157 0.898126065731049 0.849515378475189 0.771721601486206 0.647955894470215 0.515378832817078 0.448658108711243 0.425188422203064 0.419669210910797 0.414302706718445 0.411041527986526 0.400426805019379
5.40656900405884 4.78928232192993 4.63796234130859 4.45431184768677 4.39804458618164 4.16457939147949 3.78094959259033 3.21872448921204 2.39100670814514 1.49863588809967 0.855347394943237 0.535708963871002 0.10019063949585 -0.139753505587578 -0.207724303007126 -0.417888283729553 1.90495157241821 9.42387008666992 12.5290603637695 13.9382133483887 12.5855960845947 10.9246044158936 7.29398965835571 4.87052392959595 4.32007074356079 10.492241859436 15.8269567489624 11.3384590148926 8.39150524139404 5.75164556503296 4.99927663803101 4.56694364547729 4.13143014907837 3.86426305770874 3.43399691581726 3.65405535697937 4.35435724258423 7.43493747711182 15.0276231765747 19.4641456604004 18.8019256591797 15.5752468109131 13.152943611145 11.7999353408813 9.54237937927246 8.3984956741333 8.47021770477295 9.50717544555664 9.85054683685303 9.53614044189453 8.89547634124756 8.73255920410156 8.60910034179688 8.17853450775146 7.67783355712891 12.872350692749 14.3203105926514 13.4887828826904 13.3463706970215 13.2967739105225 13.895055770874 13.9964685440063 14.7474575042725 15.0374269485474 14.4281759262085 12.729905128479 11.5483131408691 10.754828453064 10.3778038024902 9.55658054351807 9.13078212738037 8.40571403503418 7.64157676696777 6.89295482635498 6.35495901107788 5.98951816558838 5.64797639846802 5.53620576858521 5.39978408813477 5.090407371521 4.92091941833496 4.60073709487915 4.35744857788086 4.07440137863159 4.01963520050049 4.04635572433472 4.1413369178772 4.06676340103149 4.0521092414856 3.99901437759399 3.81340432167053 3.71691179275513 3.46636438369751 3.25159764289856 2.97618865966797 2.91298794746399 2.89677977561951 2.94379019737244 2.98001050949097 3.15804529190063 3.28588557243347 3.41968107223511 3.52667546272278 3.64115786552429 3.76313257217407 3.77209043502808 3.55561685562134 3.184006690979 3.28894543647766 3.68805265426636 3.79967498779297 3.79223275184631 3.75959062576294 3.67326831817627 3.50952863693237 3.29183101654053 3.12081694602966 2.8260645866394 2.59648847579956 2.39343881607056 2.28896951675415 2.11925411224365 1.91465497016907 1.77540516853333 1.71567904949188 1.62231028079987 1.26434636116028 0.889465510845184 0.56959855556488 0.387254953384399 0.30696052312851 0.187447637319565 0.149250790476799 0.166112825274467 0.149499386548996 0.134434163570404 0.219333708286285 0.188327595591545 0.117634013295174 0.103580966591835 0.096176952123642 0.115895926952362 0.513602674007416 0.118130035698414 0.412929892539978 0.696636378765106 0.0450934953987598 0.423947930335999 0.662259638309479 0.795895576477051 0.79738986492157 0.734113991260529 0.722250044345856 0.638136863708496 0.750536561012268 0.498767048120499 0.482219368219376 0.561002373695374 0.729095876216888 0.826737344264984 0.859738171100616 0.849915564060211 0.808274030685425 0.727601170539856 0.603624641895294 0.475612312555313 0.401201248168945 0.382475614547729 0.385756880044937 0.399429142475128 0.396443635225296
5.71559190750122 4.95488214492798 4.54187726974487 4.43795919418335 4.24306869506836 4.16541481018066 3.92531871795654 3.39984536170959 2.64830756187439 1.7678759098053 1.05449068546295 0.662641763687134 0.258329749107361 -0.0914276316761971 -0.158683016896248 -0.287036567926407 0.297737002372742 5.85133457183838 11.4895172119141 11.6100177764893 11.2115745544434 10.4989423751831 8.20162963867188 5.80462265014648 8.21371459960938 17.663293838501 12.5201864242554 10.9629755020142 8.37566661834717 5.20297574996948 4.48696136474609 4.39943695068359 4.35872364044189 3.80274939537048 3.68691730499268 3.80900740623474 7.71076250076294 11.2629070281982 17.7389812469482 20.5487308502197 18.2698173522949 13.8121194839478 12.2173442840576 9.62465381622314 7.28309059143066 6.41871786117554 5.97028923034668 6.75861692428589 8.15476131439209 8.34389114379883 8.12734508514404 7.94465827941895 8.44227981567383 8.38076972961426 7.94841480255127 11.0151395797729 14.4559917449951 12.9270782470703 12.2036056518555 12.9375524520874 13.250937461853 13.8172168731689 14.2006931304932 14.3405656814575 13.7223339080811 12.1315078735352 11.161883354187 10.1851444244385 9.35941886901855 9.06427574157715 8.51298904418945 8.16833591461182 7.63407135009766 7.00251579284668 6.32884502410889 5.87978410720825 5.58416604995728 5.33074474334717 5.24849939346313 5.01659822463989 4.82204580307007 4.67479467391968 4.38497066497803 4.15307807922363 3.88969373703003 3.7923104763031 3.83650779724121 3.92425465583801 3.85115337371826 3.82720875740051 3.74182748794556 3.591717004776 3.49424004554749 3.25992751121521 3.06282353401184 2.80786824226379 2.75514650344849 2.76226043701172 2.78609728813171 2.83642411231995 2.98954582214355 3.12176728248596 3.22805142402649 3.31815958023071 3.53025794029236 3.63255715370178 3.46942472457886 3.28132629394531 3.03278827667236 3.22648596763611 3.52120494842529 3.62562680244446 3.62936449050903 3.59075784683228 3.50983119010925 3.35810518264771 3.14726734161377 2.97999143600464 2.70122814178467 2.47626948356628 2.28835868835449 2.19023132324219 2.01279282569885 1.80233871936798 1.64513897895813 1.38396179676056 1.00150084495544 0.668489277362823 0.410135686397552 0.321164399385452 0.302962213754654 0.222421362996101 0.134786158800125 0.128189563751221 0.118556059896946 0.104607000946999 0.0992729067802429 0.1156270429492 0.11488489061594 0.313500612974167 0.259998828172684 0.356087207794189 0.482231467962265 0.124808214604855 0.0899670794606209 0.137488454580307 0.135394796729088 0.355130970478058 0.512617468833923 0.640416443347931 0.753129124641418 0.770061671733856 0.708194851875305 0.674790441989899 0.568558990955353 0.390402376651764 0.452437430620193 0.474028736352921 0.620757341384888 0.77326226234436 0.821173787117004 0.822220325469971 0.81530374288559 0.760646522045135 0.636434137821198 0.520360469818115 0.49155205488205 0.895193994045258 0.387287616729736 0.378721803426743 0.681975603103638
6.08735990524292 5.25914001464844 4.70984697341919 4.37168788909912 4.24208354949951 4.04209423065186 3.94471502304077 3.58790755271912 2.88210725784302 2.1002414226532 1.36967468261719 0.847123146057129 0.496531695127487 0.0598802827298641 0.46916326880455 2.64796161651611 5.9920449256897 11.0640754699707 16.8084259033203 10.5863218307495 9.66844367980957 9.17763137817383 8.46684551239014 6.68128204345703 8.62052440643311 15.4959478378296 11.5926570892334 8.89166259765625 8.33032417297363 5.94479084014893 4.92750930786133 4.17642641067505 5.25468111038208 4.19859743118286 6.14776992797852 8.10721778869629 13.5861368179321 16.7040786743164 20.3366050720215 18.8259162902832 15.9926013946533 13.745192527771 10.2602815628052 8.00257396697998 5.95001173019409 5.54690217971802 5.52759647369385 5.43615865707397 6.18497848510742 6.84563732147217 7.3712043762207 7.79254579544067 7.93727540969849 8.07843494415283 8.0043363571167 8.06387233734131 14.1698741912842 13.6797542572021 12.0101289749146 11.9050045013428 12.2044677734375 12.3611440658569 12.7798051834106 13.0683145523071 12.8249063491821 12.1001901626587 10.8060989379883 9.81535243988037 8.98246955871582 8.30851554870605 8.04419040679932 7.69180774688721 7.3999228477478 6.98407173156738 6.45111179351807 5.87175559997559 5.48298072814941 5.24353456497192 5.08152484893799 4.99038648605347 4.77077960968018 4.59360456466675 4.45421075820923 4.17468166351318 3.95849466323853 3.72139191627502 3.60306167602539 3.64031171798706 3.70866250991821 3.63480377197266 3.6047534942627 3.51972150802612 3.37743377685547 3.28407144546509 3.08551573753357 2.89079904556274 2.66273093223572 2.62345743179321 2.60947513580322 2.63025712966919 2.83956956863403 2.85642886161804 2.944899559021 3.03085851669312 3.30174708366394 3.41974902153015 3.40924525260925 3.28556656837463 3.12141895294189 2.8869731426239 3.06549048423767 3.3536422252655 3.45408725738525 3.46358728408813 3.42012333869934 3.34767556190491 3.19514989852905 3.00653147697449 2.83304524421692 2.57611489295959 2.35692930221558 2.19337725639343 2.0836808681488 1.80895268917084 1.58898568153381 1.2107892036438 0.83867883682251 0.5721475481987 0.328027278184891 0.235817492008209 0.243716552853584 0.203661784529686 0.145623981952667 0.268479555845261 0.284735858440399 0.0806706771254539 0.0698282048106194 0.0678282752633095 0.0698653608560562 0.300055176019669 0.248934268951416 0.169463068246841 0.297563135623932 0.184956520795822 0.410756647586823 0.535479247570038 0.470940470695496 0.375530689954758 0.276849180459976 0.420413881540298 0.611709833145142 0.738955140113831 0.753275334835052 0.68764054775238 0.658373236656189 0.551614046096802 0.400996088981628 0.485621869564056 0.535958826541901 0.669920086860657 0.764282941818237 0.795913875102997 0.790060579776764 0.7596275806427 0.68709933757782 0.553743958473206 0.445992827415466 0.390997320413589 0.432165443897247 0.568549752235413 0.377163529396057
6.21149921417236 5.71653270721436 4.8528528213501 4.48852491378784 4.1664834022522 4.04233694076538 3.82414770126343 3.63809370994568 3.21575427055359 2.50409388542175 1.74441266059875 1.18793928623199 0.74041885137558 0.434954196214676 4.43475008010864 5.0307559967041 6.26832151412964 11.3666486740112 18.6974697113037 14.3265409469604 8.49818801879883 7.67726898193359 8.27621555328369 7.63026237487793 9.87409591674805 8.12350082397461 9.48998928070068 8.87308692932129 7.15864181518555 5.93758106231689 4.91561651229858 4.49303007125854 6.25091218948364 5.34135293960571 7.84448385238647 14.9069652557373 16.70969581604 18.4773120880127 17.5375137329102 17.0977745056152 15.0471124649048 12.4830875396729 9.20918750762939 7.55360507965088 5.94239473342896 5.34416580200195 5.01473188400269 5.06823539733887 5.33075094223022 6.26278591156006 9.46169281005859 9.29866790771484 7.64349794387817 7.5515284538269 7.80376768112183 7.9920859336853 11.2648487091064 12.877513885498 11.5973892211914 10.4508380889893 11.1725959777832 11.6640405654907 11.5254592895508 11.3585681915283 11.4385061264038 11.2338466644287 10.570481300354 9.50860691070557 8.58219146728516 7.9504189491272 7.44570827484131 7.25115966796875 7.01437997817993 6.79592704772949 6.43036651611328 5.98825645446777 5.48712873458862 5.14770317077637 4.94191598892212 4.82691431045532 4.74632549285889 4.53908729553223 4.37914085388184 4.23863458633423 3.98287272453308 3.7919008731842 3.56853890419006 3.39515590667725 3.43368363380432 3.49027466773987 3.42998099327087 3.39534115791321 3.30476379394531 3.18753361701965 3.11118078231812 2.92513275146484 2.74646735191345 2.52241253852844 2.4901270866394 2.50487756729126 2.5240375995636 2.69013690948486 2.67408514022827 2.87763261795044 2.98421239852905 3.10320162773132 3.18902468681335 3.22921538352966 3.11181116104126 2.95848560333252 2.74494242668152 2.90371942520142 3.19215250015259 3.29221749305725 3.29244661331177 3.23198175430298 3.177574634552 3.0394983291626 2.8616316318512 2.6862096786499 2.45628666877747 2.25749921798706 2.06000471115112 1.78898334503174 1.5144602060318 1.14432895183563 0.744336247444153 0.509014904499054 0.268141567707062 0.81868976354599 1.00054860115051 0.519079089164734 0.26051077246666 0.0930213704705238 0.0877008140087128 0.165261298418045 0.397871732711792 0.315326184034348 0.159523695707321 0.703068494796753 0.300031036138535 0.161078825592995 0.217430844902992 0.242728263139725 0.299678474664688 0.254729777574539 0.380157321691513 0.37667527794838 0.376428961753845 0.240290924906731 0.405962824821472 0.603319883346558 0.71844869852066 0.727233707904816 0.667833924293518 0.551466107368469 0.369921445846558 0.390940994024277 0.466808348894119 0.507128834724426 0.644151747226715 0.737957954406738 0.75465852022171 0.78424745798111 0.722002327442169 0.656599164009094 0.849322736263275 0.849699378013611 0.668145298957825 0.378674387931824 0.382155150175095
6.04057741165161 5.59304428100586 5.019211769104 4.55095100402832 4.29794645309448 3.99085569381714 3.8767454624176 3.60060238838196 3.38591766357422 2.91023421287537 2.20660471916199 1.49011790752411 1.0717111825943 0.667729318141937 2.01630926132202 6.96349430084229 9.15961360931396 12.6350917816162 16.018627166748 14.130539894104 10.3634653091431 7.08132839202881 7.36026334762573 8.1347074508667 9.40469264984131 7.97476577758789 8.15771007537842 8.36736488342285 7.03950643539429 5.62760066986084 4.72159910202026 4.42401790618896 4.93525552749634 6.8879714012146 10.5257835388184 15.4489889144897 14.8691282272339 15.8811683654785 15.8798456192017 15.2046537399292 14.4443244934082 11.9293937683105 8.95884609222412 7.16320276260376 5.95347309112549 4.89696645736694 4.43936681747437 4.49283218383789 6.25284051895142 12.5845708847046 12.0860195159912 10.9952869415283 12.1160974502563 12.5320606231689 12.0540504455566 12.5844058990479 14.4400310516357 15.0229921340942 10.4323062896729 10.5810241699219 10.1680212020874 10.1633834838867 10.4267625808716 10.2292890548706 10.073429107666 10.1574087142944 9.97885036468506 9.32077312469482 8.36470699310303 7.54943513870239 7.09825325012207 6.7373480796814 6.59779119491577 6.44796562194824 6.29800415039062 5.98477506637573 5.58758068084717 5.08312606811523 4.76727390289307 4.64021062850952 4.58884859085083 4.51111650466919 4.31515884399414 4.1749062538147 4.03769779205322 3.79476165771484 3.61253833770752 3.39049124717712 3.18598532676697 3.22687196731567 3.28028178215027 3.23024296760559 3.1960346698761 3.11108779907227 3.01791715621948 2.95011329650879 2.77443790435791 2.58913469314575 2.39251232147217 2.3722231388092 2.37553644180298 2.38970613479614 2.52134084701538 2.56942844390869 2.71549320220947 2.79700899124146 2.91758966445923 3.02330684661865 3.05705857276917 2.94192409515381 2.79721283912659 2.59176826477051 2.7521448135376 3.03881573677063 3.1222870349884 3.11941838264465 3.07482075691223 3.02542090415955 2.89627265930176 2.72350287437439 2.57344126701355 2.35718011856079 2.07805323600769 1.80604648590088 1.46488976478577 1.15957510471344 0.731544673442841 0.402672410011292 0.233001470565796 1.07281541824341 1.40279757976532 1.29648792743683 0.821953952312469 0.354667335748672 0.0732564404606819 0.0956950560212135 0.107524491846561 0.145551547408104 0.176577121019363 0.738657593727112 0.301006615161896 0.183916538953781 0.142863854765892 0.174843281507492 0.175826117396355 0.158997252583504 0.19071552157402 0.278000235557556 0.285251021385193 0.252603143453598 0.190896958112717 0.590365886688232 0.707125425338745 0.719718098640442 0.653826475143433 0.616005718708038 0.523630440235138 0.35691249370575 0.374035328626633 0.45211198925972 0.484449326992035 0.615987658500671 0.705678999423981 0.791822791099548 0.734404981136322 0.844552040100098 0.900881946086884 0.658530712127686 0.617676794528961 0.503248631954193 0.377985924482346
5.71555519104004 5.72519493103027 5.33482313156128 4.82190227508545 4.37200450897217 4.13788080215454 3.84080624580383 3.70957469940186 3.38938856124878 3.07660627365112 2.5895676612854 1.96570491790771 1.37143313884735 1.04997026920319 2.02477955818176 5.85414505004883 6.65808582305908 9.60702323913574 13.8220167160034 13.7398338317871 11.5432157516479 9.44786262512207 11.6823644638062 12.370475769043 10.9998111724854 10.5972137451172 13.3056840896606 11.7407388687134 6.71824932098389 5.33645582199097 4.83402824401855 4.61860036849976 4.4064302444458 5.56285190582275 6.29497718811035 9.93598937988281 14.1402320861816 14.2445030212402 15.0109443664551 14.6077823638916 14.1568956375122 11.4825620651245 9.38936519622803 7.44171190261841 6.3213038444519 5.06399440765381 4.26104259490967 9.8279447555542 17.6295757293701 17.9869174957275 13.842453956604 13.7227249145508 14.8475971221924 14.1567153930664 14.6253433227539 16.017484664917 16.4433517456055 13.9227485656738 11.7155323028564 9.9237232208252 9.20199680328369 8.76961612701416 9.00145626068115 9.34489917755127 9.1609992980957 9.03015327453613 9.12349224090576 8.91957664489746 8.19236469268799 7.39810228347778 6.73537969589233 6.41125059127808 6.16118431091309 6.07874584197998 5.978590965271 5.87350511550903 5.56672191619873 5.01471090316772 4.70590686798096 4.51970720291138 4.4247612953186 4.37297916412354 4.28395080566406 4.10505819320679 3.97619414329529 3.83720016479492 3.6052622795105 3.42666506767273 3.21249532699585 2.99711036682129 3.02567863464355 3.07460236549377 3.03393387794495 3.00731778144836 2.93558979034424 2.85441398620605 2.78585648536682 2.61225485801697 2.4399209022522 2.28106808662415 2.26896786689758 2.23504638671875 2.23986721038818 2.39008665084839 2.42659735679626 2.56085205078125 2.648597240448 2.7621443271637 2.85623168945312 2.8888475894928 2.78303217887878 2.6269907951355 2.44742035865784 2.58626961708069 2.8741512298584 2.97101259231567 2.98041009902954 2.95022773742676 2.87520527839661 2.76074624061584 2.61362338066101 2.46714115142822 2.13338279724121 1.81931412220001 1.43176710605621 1.11920320987701 0.745460331439972 0.363115102052689 0.161398932337761 0.654730260372162 0.999650537967682 1.25904273986816 1.17638170719147 1.12571954727173 0.438786536455154 0.0522151924669743 0.0745145678520203 0.19180491566658 0.276380717754364 0.57189154624939 0.417503356933594 0.191321954131126 0.138355374336243 0.131833076477051 0.13472855091095 0.130026161670685 0.134746938943863 0.151678830385208 0.191225364804268 0.193478375673294 0.119534231722355 0.373768359422684 0.561122357845306 0.67501026391983 0.680167078971863 0.617440283298492 0.599805951118469 0.503411471843719 0.334240645170212 0.371793746948242 0.430322378873825 0.465745121240616 0.607537031173706 0.693812966346741 0.709638893604279 0.722450733184814 0.70607852935791 0.641447484493256 0.548242330551147 0.441670209169388 0.387514680624008
5.23158884048462 5.43937826156616 5.45569181442261 5.11498212814331 4.64633083343506 4.20328521728516 3.96897792816162 3.71015620231628 3.52353286743164 3.16131234169006 2.82116937637329 2.28090310096741 1.71157968044281 1.33386635780334 1.63970923423767 4.25369739532471 5.92364835739136 11.489405632019 15.1003084182739 13.1141223907471 12.5308647155762 12.0401191711426 13.7355680465698 15.1690216064453 15.5766086578369 12.4779453277588 12.6198606491089 11.6857223510742 7.48968696594238 5.63858604431152 4.92810726165771 5.78659391403198 7.16262626647949 7.96036577224731 8.35209846496582 12.9539794921875 16.6868419647217 14.3277826309204 13.9921140670776 14.1306171417236 13.5764827728271 12.2210464477539 10.7439708709717 8.97845554351807 7.40243339538574 10.7702178955078 16.8392944335938 23.0643615722656 18.9874076843262 16.4117240905762 16.6321907043457 15.2516889572144 14.5213842391968 14.0059804916382 13.8921136856079 13.7239456176758 13.6728830337524 14.2888793945312 12.3240213394165 9.44916725158691 8.6237735748291 8.01272678375244 7.82232809066772 8.00861549377441 8.38191223144531 8.23824024200439 8.16585731506348 8.2368688583374 7.95938062667847 7.19766664505005 6.64177703857422 6.1437292098999 5.86811351776123 5.71043014526367 5.68510341644287 5.69335126876831 5.45501279830933 5.09439611434937 4.74030447006226 4.4763069152832 4.30155324935913 4.2110652923584 4.15709638595581 4.06321907043457 3.89432668685913 3.77623605728149 3.63062477111816 3.40117955207825 3.23428297042847 2.96038579940796 2.79261064529419 2.83301591873169 2.88008117675781 2.86199069023132 2.83723878860474 2.76577758789062 2.6892147064209 2.62120389938354 2.32286143302917 2.13148760795593 2.17041850090027 2.1502058506012 2.10394835472107 2.11421799659729 2.27093434333801 2.29084014892578 2.41516828536987 2.4750292301178 2.59727764129639 2.68277645111084 2.72579121589661 2.6279284954071 2.48295736312866 2.3063280582428 2.44091367721558 2.73211598396301 2.83346104621887 2.83079838752747 2.79416298866272 2.73777484893799 2.66239476203918 2.48277378082275 2.36309599876404 1.76017928123474 1.35930502414703 0.972372949123383 0.580007910728455 0.280570060014725 0.0821737200021744 -0.00229777558706701 0.487336069345474 0.909763097763062 1.61155557632446 1.69021391868591 0.980550050735474 0.309981495141983 0.0347857177257538 0.0505312755703926 0.0928494185209274 0.530437469482422 0.417836576700211 0.239057764410973 0.16074076294899 0.11513152718544 0.110451251268387 0.123904749751091 0.107094869017601 0.117474518716335 0.146159306168556 0.145176440477371 0.138191789388657 0.135752633213997 0.365858644247055 0.542942762374878 0.642390966415405 0.652362942695618 0.602917432785034 0.572653830051422 0.478828459978104 0.327074140310287 0.583819627761841 0.388264656066895 0.54431676864624 0.588671326637268 0.669827699661255 0.704845368862152 0.702434182167053 0.679360568523407 0.614291965961456 0.518725574016571 0.419529914855957
4.98380374908447 5.00399541854858 5.20260334014893 5.21983098983765 4.91567087173462 4.45694780349731 4.03142738342285 3.83800792694092 3.59297275543213 3.38196802139282 3.00075697898865 2.64228796958923 2.10765361785889 1.68861424922943 3.8941662311554 5.81332540512085 10.6297254562378 15.2338857650757 14.821159362793 13.8054256439209 12.5438632965088 12.3524990081787 11.7359018325806 13.1389713287354 14.8587465286255 13.7271642684937 11.1731100082397 10.3615961074829 8.79790306091309 6.79896068572998 5.38971567153931 5.63772583007812 8.72590923309326 13.357439994812 15.9433622360229 18.3448829650879 17.952018737793 15.3380613327026 14.0094242095947 13.3393611907959 13.5206422805786 12.6831579208374 11.120979309082 10.0051736831665 8.96549606323242 14.5909729003906 16.8124446868896 16.6257381439209 21.4667720794678 18.2725086212158 16.1137714385986 15.9881687164307 14.4203853607178 14.1675090789795 13.4594259262085 12.5509471893311 13.0237646102905 12.5633773803711 11.1360216140747 9.33243942260742 7.81615400314331 7.34871816635132 7.0540189743042 6.92946910858154 7.2276816368103 7.59605646133423 7.50266695022583 7.48249578475952 7.45571184158325 7.05821657180786 6.4242844581604 6.0626368522644 5.68374586105347 5.45970821380615 5.46504878997803 5.42569875717163 5.36634063720703 5.14839124679565 4.80812549591064 4.51066303253174 4.25264501571655 4.05677080154419 3.98010730743408 3.93333411216736 3.83344173431396 3.67875647544861 3.55291843414307 3.40219736099243 3.20107793807983 2.94831252098083 2.7280011177063 2.60347032546997 2.66110301017761 2.70859599113464 2.69856953620911 2.67391586303711 2.60562920570374 2.49836492538452 2.35536503791809 2.19352579116821 2.00905013084412 2.051842212677 2.04517340660095 1.98605918884277 2.00359630584717 2.15334033966064 2.13722062110901 2.25738620758057 2.32164287567139 2.43577575683594 2.52656531333923 2.57919812202454 2.49922299385071 2.37297391891479 2.20774126052856 2.33116602897644 2.60760998725891 2.68481731414795 2.68466258049011 2.69100260734558 2.64748215675354 2.49684739112854 2.33977627754211 1.6731151342392 1.23084104061127 0.824063658714294 0.444032698869705 0.199723035097122 0.00603925809264183 -0.0810045227408409 0.0628726556897163 0.637847900390625 1.4860372543335 1.59469389915466 1.30004072189331 0.741260349750519 0.166913032531738 0.02932601980865 0.089225061237812 0.597862839698792 0.305116534233093 0.257603377103806 0.182660028338432 0.138508960604668 0.0872024968266487 0.0930074453353882 0.106056772172451 0.102377779781818 0.101087875664234 0.0910475477576256 0.0395079590380192 0.0881003588438034 0.09904994815588 0.34323063492775 0.512430191040039 0.624240934848785 0.631155788898468 0.57331919670105 0.549082338809967 0.467587530612946 0.320884376764297 0.368912011384964 0.715845882892609 0.433297365903854 0.555635869503021 0.636802136898041 0.677754163742065 0.681189119815826 0.65266078710556 0.585250973701477 0.493960976600647
4.75443267822266 4.78543758392334 4.8073616027832 4.98583889007568 4.99381446838379 4.7113299369812 4.2917013168335 3.90167903900146 3.73226976394653 3.45615530014038 3.22050261497498 2.94065809249878 2.51156425476074 2.04964733123779 4.18477630615234 5.32366609573364 12.2815933227539 13.249137878418 13.9528207778931 12.7819232940674 11.9435148239136 11.7654571533203 11.7849826812744 11.2006206512451 11.9281444549561 12.9193000793457 12.0216789245605 10.3862466812134 9.84016799926758 8.36681652069092 7.81838512420654 13.6263313293457 14.6934204101562 13.4027938842773 12.4184684753418 14.2581024169922 15.5054016113281 16.1076736450195 13.5868854522705 13.203164100647 12.9492425918579 12.3554353713989 11.5376224517822 10.6119718551636 9.87996387481689 12.7815284729004 14.7725811004639 16.6185188293457 19.5216655731201 18.8653182983398 15.8473463058472 15.7022428512573 15.6118383407593 13.7566480636597 13.2654066085815 13.1059541702271 11.8093318939209 10.8237133026123 9.8689546585083 8.5954418182373 7.42975521087646 7.0211238861084 6.72628879547119 6.54092741012573 6.23055648803711 6.59454107284546 6.97384071350098 6.91089630126953 6.95359230041504 6.74151754379272 6.4268798828125 5.91788816452026 5.6586971282959 5.33071231842041 5.21049213409424 5.1350302696228 5.1134204864502 5.05518341064453 4.87050151824951 4.56244039535522 4.27211332321167 3.99042820930481 3.79162812232971 3.73351788520813 3.69597053527832 3.59145164489746 3.43359756469727 3.32652354240417 3.19994258880615 2.96499419212341 2.7859411239624 2.58029103279114 2.44377613067627 2.50244760513306 2.59021973609924 2.57679724693298 2.5102174282074 2.43771982192993 2.36353468894958 2.23554134368896 2.06467151641846 1.88431227207184 1.95131266117096 1.92629551887512 1.87937772274017 1.88860511779785 2.01286673545837 2.00393176078796 2.12387919425964 2.17347550392151 2.29648852348328 2.38665175437927 2.44856357574463 2.38621497154236 2.27392292022705 2.12175893783569 2.21988153457642 2.4785168170929 2.54976034164429 2.57536220550537 2.57421159744263 2.38904023170471 2.20161151885986 1.66428661346436 1.05982530117035 0.707951605319977 0.35856956243515 0.103004582226276 -0.0582313202321529 -0.167520523071289 -0.18939483165741 0.723794281482697 1.16763401031494 1.27567291259766 1.28802418708801 0.991709113121033 0.541021287441254 0.598838329315186 0.143875658512115 0.451874166727066 0.298562854528427 0.214426830410957 0.186617910861969 0.148033007979393 0.0876911655068398 0.0751824080944061 0.0773296877741814 0.0875729322433472 0.0733076855540276 0.0267794150859118 -0.0223202481865883 0.168207377195358 0.0899670794606209 0.0424499325454235 0.327450096607208 0.495892971754074 0.5962895154953 0.60313469171524 0.552917659282684 0.534785091876984 0.453225314617157 0.307252585887909 0.331207692623138 0.369704633951187 0.42221587896347 0.542893171310425 0.633431434631348 0.652848362922668 0.651517629623413 0.627656221389771 0.559226334095001
