NCOLS 171
NROWS 31
XLLCORNER 353856
YLLCORNER 6699712
CELLSIZE 16 
NODATA_value -3.4e+38 
6.16449689865112 5.04800987243652 4.05245971679688 2.96119999885559 2.32671356201172 1.98172831535339 1.76716291904449 1.7400074005127 1.71048212051392 1.49889361858368 1.36007535457611 1.28596949577332 1.08984434604645 0.906696319580078 0.813871085643768 0.747252762317657 0.663782894611359 0.627013087272644 0.627968728542328 0.587861776351929 0.505678772926331 0.412656992673874 0.324190855026245 0.240031659603119 0.129387989640236 0.00976298749446869 -0.137978106737137 -0.273003935813904 -0.533778965473175 -0.819909751415253 3.7921314239502 5.61839199066162 2.36480236053467 2.07494258880615 1.36965942382812 0.369785219430923 0.346978783607483 0.329258918762207 1.51948380470276 1.34107661247253 0.932020902633667 0.323418796062469 0.222220703959465 -0.158640876412392 -0.0910541266202927 0.18695430457592 0.520440936088562 0.695235967636108 0.467293560504913 -0.00962331611663103 0.203513339161873 0.702115058898926 1.3321133852005 1.53484523296356 1.64012813568115 1.43490016460419 1.1613929271698 0.820146560668945 0.652393877506256 0.507596254348755 0.365789473056793 0.120693370699883 -0.0981782972812653 -0.169465765357018 -0.27871298789978 -0.452360808849335 -0.752050757408142 0.873040735721588 8.59622764587402 8.45390796661377 5.7927041053772 6.75536251068115 8.89466381072998 8.5517635345459 6.30847072601318 5.22147798538208 4.35465478897095 2.90493941307068 2.3458104133606 1.71281778812408 1.38405871391296 0.872010231018066 0.686480522155762 0.660032987594604 0.616202354431152 0.610962271690369 0.680967807769775 0.75108277797699 0.911533057689667 1.01487576961517 1.00639486312866 0.970634996891022 0.921797931194305 0.765453934669495 0.671446442604065 0.69538813829422 0.695935666561127 0.717042148113251 0.689241230487823 3.72231531143188 6.26857948303223 5.16101026535034 5.82658338546753 5.1485710144043 4.69779443740845 4.85042953491211 5.28810977935791 5.98125791549683 5.94199323654175 6.43556451797485 6.51030397415161 6.87746095657349 6.89438390731812 6.97822856903076 6.60166835784912 6.28193426132202 5.98023891448975 5.49289655685425 5.02352094650269 4.22046756744385 4.09204912185669 5.84262609481812 5.81784772872925 5.37249612808228 5.69965648651123 6.02165222167969 5.8198413848877 5.98953056335449 5.84553909301758 5.6006007194519 5.27118825912476 5.02852535247803 4.75430393218994 4.55615425109863 4.09838056564331 3.65786504745483 3.48087859153748 3.25550699234009 3.14636754989624 3.13251042366028 3.01473379135132 2.98852586746216 3.28470945358276 3.34229350090027 3.35334086418152 3.17741870880127 3.0530948638916 2.74178504943848 2.55103898048401 2.50171208381653 2.44028186798096 2.43652033805847 2.41517329216003 2.53055238723755 2.53628921508789 2.57320213317871 2.6415319442749 2.61666822433472 2.59523820877075 2.60261082649231 2.51175260543823 2.43881416320801 2.34852838516235 2.17658543586731 1.96805918216705 1.84947609901428 1.88890564441681 1.84635543823242 1.85222256183624 1.4904283285141 1.57368683815002
6.70027875900269 5.3895320892334 4.69090890884399 4.03362464904785 3.30889678001404 2.44121909141541 1.92897403240204 1.86853623390198 1.7000480890274 1.66959595680237 1.44442248344421 1.27540969848633 1.21614849567413 0.947837352752686 0.788000524044037 0.706063687801361 0.648203134536743 0.617906153202057 0.58720862865448 0.538186430931091 0.455114006996155 0.380524843931198 0.337451934814453 0.255521386861801 0.177863329648972 0.06245406717062 -0.0814938843250275 -0.202221572399139 -0.3857202231884 -0.572627127170563 3.58706641197205 3.59236788749695 3.53380870819092 3.54842734336853 2.10057067871094 1.90071713924408 1.27376127243042 1.54521727561951 1.99148607254028 1.21400332450867 0.904717326164246 0.790624022483826 0.264256715774536 -0.559532463550568 -0.710537731647491 -0.639069437980652 -0.135733336210251 -0.0631761848926544 -0.121752180159092 -0.215076208114624 0.0553362742066383 0.607686758041382 1.33821308612823 1.27197587490082 1.20931971073151 1.00801777839661 0.643292486667633 0.465849876403809 0.369974076747894 0.311936020851135 0.111950956285 -0.186099365353584 -0.240442290902138 -0.26713964343071 -0.379576146602631 -0.451455563306808 -0.552419126033783 2.01053047180176 6.08839988708496 7.30998659133911 7.70541048049927 8.17563533782959 9.07943058013916 8.17163944244385 6.44651937484741 5.00266027450562 4.34944200515747 3.62408971786499 3.14912366867065 2.31940388679504 1.91814541816711 1.22653186321259 0.780425846576691 0.724912464618683 0.597115099430084 0.571961104869843 0.552728235721588 0.562481284141541 0.711540639400482 0.762883126735687 0.840611219406128 0.928567945957184 0.915633022785187 0.889022409915924 0.851534783840179 0.710901498794556 0.61296808719635 0.63750147819519 0.636445760726929 0.648609578609467 0.632907748222351 1.55380737781525 2.65711426734924 3.07643246650696 3.61732935905457 3.21163535118103 3.64534401893616 3.73039579391479 4.43614387512207 5.41132402420044 5.85774707794189 5.8820743560791 5.98385810852051 6.1062388420105 6.02305364608765 6.09656572341919 5.80549240112305 5.57287836074829 5.3564453125 4.75090885162354 4.38921117782593 3.8839430809021 4.09780550003052 4.52637243270874 4.9948468208313 4.77252578735352 5.24320650100708 5.55950164794922 5.63837432861328 5.44113397598267 5.20337200164795 4.97577476501465 4.70833206176758 4.49052429199219 4.27063369750977 3.85455226898193 3.70344805717468 3.28026103973389 3.13448619842529 2.93385601043701 2.86749863624573 2.84194374084473 2.74788475036621 3.14826536178589 3.20352029800415 3.20015025138855 3.10232305526733 2.91930890083313 2.78188538551331 2.49466824531555 2.3007333278656 2.28324747085571 2.24515748023987 2.2548656463623 2.23287534713745 2.34671664237976 2.34707093238831 2.33796906471252 2.28335547447205 2.26483273506165 2.25019073486328 2.2344536781311 2.19696235656738 2.08063912391663 1.90291106700897 1.59659361839294 1.58912372589111 1.3579603433609 0.991600751876831 0.474238812923431 0.559047043323517
6.05975103378296 5.66396713256836 4.81777238845825 4.10378885269165 3.73735451698303 3.35868048667908 2.69250917434692 1.90450632572174 1.8255512714386 1.62519145011902 1.37012326717377 1.73438310623169 1.29390501976013 1.03065896034241 0.937095582485199 0.749477207660675 0.636629521846771 0.586241066455841 0.542505502700806 0.477778881788254 0.402922421693802 0.340513676404953 0.315630555152893 0.268034487962723 0.200722381472588 0.100110530853271 -0.0183450151234865 -0.150676235556602 -0.323072582483292 -0.458243072032928 0.681058049201965 2.04529905319214 2.61794257164001 3.07781195640564 3.16171479225159 2.88633871078491 1.73441648483276 1.22256171703339 0.921478092670441 0.843956828117371 0.957730114459991 0.794316291809082 0.419021248817444 -0.638733923435211 -0.903446972370148 -0.962364792823792 0.923836827278137 1.94583296775818 -0.114759422838688 -0.186259627342224 -0.00618241634219885 0.807454407215118 0.701601982116699 0.176152482628822 0.514241635799408 0.356034159660339 0.307531535625458 0.185166761279106 0.20215916633606 0.0374587550759315 -0.309210062026978 -0.32400980591774 -0.318883150815964 -0.341026574373245 -0.43905445933342 -0.464108765125275 -0.485285133123398 -0.508435308933258 4.44366025924683 7.54839468002319 7.93905735015869 8.57706546783447 8.66345024108887 7.60944747924805 6.13554000854492 5.09218740463257 4.35239934921265 3.79504776000977 3.40201354026794 2.93676567077637 2.57479882240295 1.83642554283142 1.30566823482513 1.04505944252014 0.661681413650513 0.63702118396759 0.540664732456207 0.524911105632782 0.504148304462433 0.582136273384094 0.645669281482697 0.696451425552368 0.766088604927063 0.85016131401062 0.846299767494202 0.8244868516922 0.668642163276672 0.575247287750244 0.565651893615723 0.582513213157654 0.58394581079483 0.594904661178589 0.539535462856293 0.946177661418915 1.60625994205475 2.20335721969604 2.74511313438416 2.88427686691284 2.99487280845642 4.04180717468262 4.56700944900513 4.72228956222534 5.11438751220703 5.13536071777344 5.22971105575562 5.34437894821167 5.35805702209473 5.41741561889648 5.19157266616821 5.03676557540894 4.71676397323608 4.34303188323975 4.14969968795776 3.68969202041626 3.4435338973999 3.98218703269958 4.50940084457397 4.99661922454834 5.21355628967285 4.95250940322876 5.05519485473633 4.83241367340088 4.62996864318848 4.42929983139038 4.20812797546387 4.01087141036987 3.84444904327393 3.46541404724121 3.32527470588684 2.94642233848572 2.84518814086914 2.66512608528137 2.60078239440918 2.57925772666931 2.63555073738098 2.89389705657959 2.91878366470337 2.89554595947266 2.78744840621948 2.57843518257141 2.31276631355286 2.17741894721985 2.09917569160461 2.04625487327576 2.02904963493347 2.04826712608337 1.98486745357513 1.96495997905731 1.94303512573242 1.89802229404449 1.92253386974335 1.9430775642395 1.98493432998657 1.86510038375854 1.69610106945038 1.28840005397797 0.946966409683228 0.647756993770599 0.343051344156265 -0.0624778307974339 -0.153626561164856
4.64070653915405 5.76843070983887 5.19873666763306 4.24121427536011 3.72899794578552 3.46273732185364 3.09411287307739 2.43288540840149 1.86016654968262 1.55034101009369 1.55877864360809 2.78508591651917 1.22182655334473 1.10842430591583 1.03189253807068 0.863187074661255 0.792514264583588 0.540326356887817 0.475682348012924 0.416298359632492 0.378669440746307 0.320589959621429 0.279897212982178 0.248690322041512 0.191701024770737 0.137265503406525 0.0389813035726547 -0.0932503864169121 -0.232598930597305 -0.388154625892639 -0.187303707003593 1.61866879463196 2.4738621711731 3.75171852111816 3.16684174537659 2.59368491172791 2.62923693656921 1.72666954994202 1.45975708961487 1.03356170654297 0.912006735801697 0.769844532012939 0.407385468482971 -0.509547114372253 -0.897107124328613 -1.01294827461243 -1.03317010402679 3.9238486289978 2.39791417121887 1.19547951221466 0.0156148765236139 0.54144012928009 -0.32781383395195 -0.608600199222565 -0.454651236534119 -0.101815819740295 0.0269807446748018 -0.0665784254670143 -0.136292114853859 -0.383004635572433 -0.450019806623459 -0.441768527030945 -0.43228155374527 -0.430113673210144 -0.445628672838211 -0.446339100599289 -0.138736918568611 -0.51741486787796 3.65273833274841 6.12037372589111 7.40581083297729 8.39799022674561 7.9544939994812 6.82618999481201 6.37213468551636 5.05015993118286 4.57201480865479 3.82770156860352 3.36763525009155 3.11679029464722 2.78608083724976 2.31973481178284 1.78869569301605 1.46741032600403 1.14504969120026 0.929226040840149 0.601484298706055 0.581121623516083 0.49320313334465 0.475503504276276 0.473385214805603 0.526785492897034 0.600514948368073 0.645295321941376 0.716409027576447 0.794942200183868 0.779932379722595 0.756057679653168 0.620597422122955 0.535459101200104 0.517677187919617 0.549025356769562 0.561077356338501 0.549714863300323 0.497569769620895 1.07700347900391 1.88094425201416 2.20919847488403 2.20833611488342 2.32535409927368 2.84716081619263 3.52710008621216 3.98861122131348 4.19071292877197 4.54592800140381 4.5687460899353 4.64987468719482 4.80305576324463 4.97827816009521 4.87720775604248 4.74421548843384 4.57602882385254 4.32250785827637 4.00214672088623 3.8303017616272 3.41707682609558 3.80624747276306 4.25918292999268 4.08895206451416 4.47357082366943 4.58088731765747 4.43052911758423 4.48116064071655 4.30060863494873 4.13240194320679 3.93505144119263 3.77725529670715 3.59439063072205 3.43175005912781 3.09084534645081 2.97396039962769 2.63361477851868 2.4607412815094 2.39126205444336 2.3435378074646 2.28042697906494 2.33235239982605 2.58023118972778 2.59377241134644 2.5511622428894 2.41742324829102 2.32311105728149 2.09393692016602 1.90400862693787 1.82800567150116 1.80357921123505 1.80545127391815 1.69569659233093 1.57292973995209 1.47103941440582 1.46358346939087 1.43506062030792 1.46065998077393 1.37116265296936 1.23087453842163 0.807815551757812 0.454247385263443 0.111778393387794 -0.282711923122406 -0.493270397186279 -0.631587982177734
3.64725470542908 4.90357542037964 4.78653526306152 4.09671115875244 3.82112240791321 3.35127234458923 3.1475203037262 2.80550980567932 2.57556104660034 2.10612225532532 2.79361414909363 1.57121658325195 1.12641537189484 1.06413817405701 0.994565188884735 0.948413550853729 0.850077688694 0.668965697288513 0.509325623512268 0.406672030687332 0.362063974142075 0.308922290802002 0.265729546546936 0.215013116598129 0.176141440868378 0.138674885034561 0.0615444295108318 -0.0304567106068134 -0.157484009861946 -0.283992022275925 2.71992969512939 3.53843665122986 3.14012908935547 3.35898017883301 2.60735535621643 2.4913375377655 2.43562507629395 2.44749355316162 2.19535541534424 1.44468688964844 1.2899261713028 0.948779821395874 0.543843150138855 0.0272049698978662 -0.744930505752563 1.24918055534363 0.589382827281952 1.68834161758423 4.69950532913208 3.35762000083923 1.52475714683533 0.91514378786087 -0.321468651294708 -0.629154622554779 -0.193234488368034 1.63791227340698 0.993882536888123 -0.220097750425339 -0.37719652056694 -0.507912278175354 -0.4931660592556 -0.49819678068161 -0.499529987573624 -0.488622725009918 -0.450287640094757 -0.403638064861298 -0.491588413715363 -0.496723473072052 3.08505988121033 5.27898025512695 6.96657752990723 8.48196220397949 7.31411552429199 6.38346195220947 5.65445041656494 5.46614360809326 5.01207637786865 4.03849792480469 3.75658321380615 3.14576864242554 2.80556964874268 2.51343822479248 2.26262974739075 1.99085247516632 1.55589163303375 1.28785490989685 1.02015852928162 0.830637693405151 0.542842984199524 0.461981534957886 0.446259796619415 0.428271800279617 0.431196808815002 0.492432624101639 0.564454317092896 0.688650846481323 0.756042063236237 0.750682830810547 0.727800071239471 0.703652083873749 0.575836777687073 0.497396290302277 0.492891579866409 0.505951762199402 0.518498718738556 0.510184943675995 0.558561682701111 0.968966722488403 1.51173031330109 1.78605115413666 1.91029572486877 2.25013113021851 2.4835102558136 3.13098382949829 3.54160833358765 3.7680070400238 4.0873498916626 4.27910709381104 4.51942300796509 4.53713369369507 4.58918285369873 4.42325735092163 4.32751035690308 4.17721223831177 3.9775767326355 3.66686534881592 3.27967357635498 3.12016892433167 3.33969759941101 3.75218796730042 3.56624889373779 3.9468674659729 4.11664056777954 3.90666842460632 3.97325015068054 3.83770561218262 3.67921447753906 3.50134658813477 3.31527137756348 3.14130735397339 3.00310301780701 2.69739842414856 2.3950080871582 2.30170369148254 2.09811663627625 2.02066540718079 1.94749128818512 2.03303718566895 2.35465312004089 2.34977126121521 2.31255340576172 2.25039029121399 2.11261057853699 1.8698650598526 1.67915904521942 1.59886336326599 1.63562440872192 1.52568709850311 1.27757036685944 1.07645547389984 0.995024502277374 0.85345321893692 0.634015738964081 0.42683357000351 0.254041463136673 0.0853260233998299 -0.015865258872509 -0.398479104042053 -0.734314024448395 -0.912129878997803 -1.04610621929169
3.08594584465027 3.9949357509613 4.58377361297607 4.1382794380188 3.77295446395874 3.16654109954834 3.08038949966431 3.00125885009766 2.82878923416138 2.56573343276978 2.39776158332825 1.86547791957855 1.4751101732254 1.14844512939453 0.930439233779907 0.900631427764893 0.801930606365204 0.758049547672272 0.606334686279297 0.51527065038681 0.364453762769699 0.302021324634552 0.238293096423149 0.210599973797798 0.167667150497437 0.112602360546589 0.0634339824318886 0.00206761434674263 -0.0800872445106506 -0.171538293361664 2.21992945671082 1.74712383747101 1.78607189655304 1.95741629600525 1.87245488166809 1.97099423408508 2.11939835548401 2.22195076942444 2.07492756843567 2.03532385826111 1.85524165630341 1.24082815647125 0.904925525188446 0.32341456413269 -0.185714527964592 -0.0959365367889404 0.76823902130127 3.73442506790161 4.06968545913696 5.26009893417358 3.77914142608643 2.45687103271484 0.719010233879089 -0.500798940658569 0.334190279245377 1.00496113300323 1.22788298130035 0.404642194509506 -0.558406829833984 -0.571604013442993 -0.571986079216003 -0.562366008758545 -0.547125697135925 -0.244660094380379 0.526371240615845 0.0972263440489769 -0.535662889480591 -0.547774970531464 2.57777810096741 5.68709278106689 7.57887363433838 8.19203758239746 6.76412010192871 5.73574638366699 4.96562337875366 4.86554622650146 4.46440410614014 4.41830492019653 4.11042547225952 3.38912439346313 2.83534049987793 2.60802984237671 2.39693450927734 2.13816452026367 1.96758079528809 1.73144459724426 1.3815643787384 1.1473947763443 0.771560549736023 0.505234718322754 0.498530119657516 0.417824149131775 0.397693663835526 0.391172975301743 0.410147696733475 0.539714336395264 0.571595549583435 0.640232741832733 0.701137900352478 0.690954506397247 0.673173487186432 0.658794164657593 0.544729351997375 0.450883716344833 0.459671765565872 0.468121558427811 0.485978662967682 0.476655960083008 0.437527805566788 0.766964614391327 1.34911000728607 1.6893424987793 1.77848529815674 1.96168029308319 2.20464611053467 2.81086373329163 3.54883861541748 3.84877133369446 3.86247086524963 3.93167114257812 4.12796449661255 4.13377475738525 4.18310832977295 4.04888248443604 3.97796511650085 3.85460925102234 3.54560446739197 3.40022587776184 3.06728863716125 2.90761947631836 2.90775966644287 3.24392223358154 3.08999705314636 3.41682577133179 3.59006571769714 3.65381503105164 3.46921038627625 3.34264469146729 3.16953802108765 3.01637482643127 2.85252952575684 2.71225810050964 2.42571640014648 2.32998585700989 2.0395941734314 1.90546941757202 1.69546222686768 1.63308823108673 1.75262534618378 1.78570950031281 2.0117609500885 2.01657295227051 1.99426066875458 1.70715272426605 1.47593128681183 1.27163791656494 1.02060735225677 0.689109802246094 0.456675499677658 0.448172062635422 0.341071218252182 0.0782006680965424 -0.0651971697807312 -0.230928316712379 -0.41214194893837 -0.517217755317688 -0.578069567680359 -0.807695090770721 -1.0953072309494 -1.2878680229187 -1.38711619377136
3.16046810150146 3.67601823806763 4.33810091018677 3.92940616607666 3.60782599449158 3.61609959602356 3.25135493278503 2.81664752960205 2.7358067035675 2.63529348373413 2.28738522529602 2.00915908813477 1.93413150310516 1.53854966163635 0.997163951396942 0.839974105358124 0.778891742229462 0.740676581859589 0.660638630390167 0.587805867195129 0.444106698036194 0.353070139884949 0.227242007851601 0.189287304878235 0.142556831240654 0.106976054608822 0.0637522488832474 0.0259045865386724 -0.0262699536979198 -0.112581633031368 1.06793916225433 1.71324074268341 1.5539139509201 1.04882025718689 1.0076847076416 1.30618381500244 1.62266707420349 1.67735266685486 1.73943531513214 1.81823885440826 1.66659021377563 1.68838512897491 1.20087051391602 0.983326077461243 0.584969401359558 -0.0215975772589445 1.58092057704926 4.24415826797485 5.13548469543457 4.03869962692261 3.5299928188324 3.02580428123474 2.31291317939758 0.641030371189117 -0.0347333140671253 -0.0089192958548665 1.36710524559021 0.912421822547913 -0.109371207654476 -0.26945036649704 -0.606625616550446 -0.622150778770447 -0.592753350734711 1.02822363376617 0.942941009998322 0.118204943835735 -0.526302874088287 -0.590542495250702 3.51359033584595 7.13894939422607 8.3693733215332 7.83838176727295 6.39778137207031 5.20433139801025 4.54232263565063 4.20413398742676 3.95197176933289 3.94045567512512 3.66140508651733 3.70890879631042 3.08041143417358 2.90578937530518 2.3998715877533 2.24405646324158 2.07724833488464 1.87048363685608 1.75435245037079 1.54485213756561 1.09941112995148 0.866694092750549 0.705149710178375 0.469128757715225 0.44388934969902 0.37742418050766 0.378499090671539 0.377410590648651 0.439724683761597 0.500915586948395 0.528362572193146 0.588320851325989 0.654118001461029 0.648718476295471 0.633991479873657 0.521109819412231 0.449573636054993 0.417656421661377 0.431227684020996 0.44180965423584 0.457643091678619 0.41402941942215 0.64728057384491 1.13797080516815 1.34924423694611 1.46040821075439 1.54362273216248 1.7346076965332 2.6401515007019 2.98875045776367 3.2328519821167 3.5004723072052 3.51536583900452 3.57419538497925 3.78700733184814 3.80370235443115 3.86479234695435 3.76312875747681 3.67935752868652 3.5307719707489 3.31473660469055 3.14917373657227 2.81026029586792 2.6373929977417 2.4538209438324 2.79397511482239 3.15759420394897 3.19885659217834 3.02023839950562 3.08101606369019 2.92242574691772 2.82062649726868 2.71850037574768 2.56468343734741 2.43898177146912 2.31064295768738 2.05688166618347 1.93291664123535 1.65394032001495 1.54111361503601 1.35086023807526 1.28910946846008 1.42143404483795 1.41063952445984 1.39110279083252 1.22391784191132 0.740589380264282 0.291075080633163 0.172390684485435 -0.032573577016592 -0.258447051048279 -0.397944301366806 -0.502484142780304 -0.672392606735229 -0.77184921503067 -0.757567942142487 -0.99251800775528 -1.13027548789978 -0.993430912494659 -1.0892539024353 -1.4050829410553 -1.52851045131683 -1.52335619926453
3.87683033943176 3.55786395072937 3.44350409507751 3.47700572013855 3.37227702140808 3.16704106330872 2.99342083930969 2.85518717765808 2.58090257644653 2.23682355880737 2.0926296710968 2.02192521095276 1.91637492179871 1.75826227664948 1.4114271402359 1.09992504119873 0.828339874744415 0.694997847080231 0.663506984710693 0.594671130180359 0.520113527774811 0.423309415578842 0.301406741142273 0.223722130060196 0.12830325961113 0.09565469622612 0.0644256398081779 0.0344607010483742 -0.00982003659009933 -0.0577076449990273 0.6311354637146 0.938118815422058 0.476532846689224 0.62509673833847 0.71738076210022 0.774661362171173 1.23241007328033 1.2915860414505 1.38343143463135 1.43911361694336 1.38734042644501 1.50944495201111 1.53563809394836 1.39450335502625 0.926257729530334 0.603889048099518 0.218617290258408 -0.210645243525505 1.233771443367 2.3157901763916 2.35874319076538 2.28289031982422 2.18001055717468 1.86923027038574 1.2086935043335 0.318643122911453 0.969261527061462 1.2840963602066 0.350508689880371 0.219442114233971 -0.402658343315125 -0.527346789836884 1.43271362781525 2.13893747329712 1.57161939144135 0.548034965991974 0.179524689912796 0.0136486561968923 7.13323163986206 9.69255638122559 9.66022682189941 7.09768104553223 6.36001634597778 4.93402671813965 4.29705381393433 3.7794713973999 3.52385020256042 3.40014886856079 3.18850350379944 3.29570150375366 3.36219787597656 3.1857898235321 2.6550669670105 2.51077771186829 2.08998513221741 2.01553821563721 1.87064528465271 1.67442655563354 1.44694769382477 1.17325067520142 0.97518926858902 0.79623144865036 0.646442830562592 0.424089103937149 0.414269894361496 0.367431730031967 0.359390825033188 0.36190128326416 0.408292263746262 0.462723582983017 0.494065642356873 0.557866513729095 0.615189552307129 0.607518315315247 0.590076744556427 0.485536098480225 0.421298414468765 0.393396824598312 0.422039687633514 0.437607616186142 0.427844405174255 0.38876548409462 0.575996577739716 0.986547887325287 1.13401627540588 1.21571910381317 1.36475312709808 1.83896684646606 2.39664602279663 2.7131679058075 2.96000385284424 3.20810914039612 3.22217488288879 3.30642771720886 3.50112128257751 3.68345952033997 3.58320569992065 3.51277089118958 3.40849661827087 3.24501705169678 3.00760746002197 2.82687282562256 2.45716333389282 2.16191673278809 2.41294717788696 2.24136638641357 2.56340599060059 2.61056208610535 2.4967315196991 2.56604027748108 2.46812868118286 2.43378686904907 2.30785131454468 2.17116022109985 2.05939793586731 1.92389643192291 1.66258430480957 1.55306422710419 1.29993498325348 1.09428489208221 1.00873184204102 0.839046537876129 0.733757138252258 0.620770931243896 0.0919330790638924 -0.404871940612793 -0.573625445365906 -0.539276957511902 -0.75639271736145 -0.940304815769196 -1.01621544361115 -1.17944419384003 -1.40155756473541 -1.33902597427368 -1.35475146770477 -1.45038366317749 -1.33887827396393 -1.36912369728088 -1.52352797985077 -1.5606644153595 4.93577337265015
3.42804312705994 2.92451000213623 3.07727551460266 3.01107954978943 2.96138691902161 2.89417099952698 2.81653666496277 2.76945185661316 2.43349361419678 2.08580923080444 1.83526229858398 1.78758096694946 1.76257681846619 1.77116644382477 1.60625994205475 1.51467609405518 1.18134009838104 0.937553584575653 0.65937215089798 0.551641166210175 0.515982687473297 0.432540237903595 0.353450775146484 0.284761756658554 0.174925670027733 0.0843416079878807 0.0456860177218914 0.0215283408761024 0.00184657622594386 -0.0318443812429905 -0.0744445398449898 0.44177109003067 0.326318174600601 0.340343058109283 0.363379716873169 0.520015954971313 0.858004570007324 0.939264953136444 1.15003311634064 1.15547108650208 1.10965955257416 1.14659249782562 1.36773633956909 1.24657452106476 1.24021601676941 1.0636693239212 0.582851588726044 0.729849696159363 1.8087682723999 0.754296720027924 0.451653659343719 1.28106606006622 1.47921657562256 1.83067989349365 1.56239688396454 1.40715146064758 1.0447633266449 0.817685127258301 0.497861504554749 0.353886902332306 0.0530775487422943 0.290589272975922 1.29005813598633 0.932979762554169 0.959536790847778 1.09199678897858 1.03859627246857 1.79925358295441 6.18389892578125 8.24580764770508 8.30960369110107 7.26995182037354 6.26430940628052 5.11191129684448 4.27541255950928 3.56765484809875 3.19657325744629 3.03019547462463 2.8520941734314 2.83124828338623 2.98852229118347 2.82963252067566 2.92416620254517 2.77165722846985 2.36213254928589 2.25944304466248 1.89516723155975 1.7473669052124 1.56595945358276 1.48836207389832 1.31300187110901 1.07578575611115 0.892620205879211 0.732562065124512 0.59255588054657 0.394198685884476 0.351204842329025 0.341465681791306 0.331995904445648 0.332864284515381 0.379680663347244 0.435816556215286 0.539184093475342 0.59474766254425 0.586414039134979 0.572388410568237 0.560933232307434 0.459466099739075 0.377798348665237 0.3902567923069 0.400298357009888 0.410452008247375 0.401787906885147 0.366392701864243 0.183782547712326 0.50814813375473 1.00780785083771 1.21372616291046 1.44336843490601 1.67306745052338 2.19673609733582 2.48940801620483 2.73248958587646 2.98724031448364 3.15837407112122 3.33434748649597 3.34547662734985 3.4364025592804 3.32403254508972 3.19351267814636 3.05598378181458 2.88733148574829 2.6152925491333 2.31776738166809 2.13766860961914 1.84216117858887 1.85018301010132 1.74246513843536 2.09840703010559 2.13677048683167 2.09787392616272 2.18996286392212 2.0975170135498 2.02946281433105 1.91668927669525 1.8024263381958 1.6855366230011 1.51331007480621 1.25750756263733 1.01556098461151 0.835943698883057 0.567867696285248 0.370758861303329 0.204680413007736 -0.122942917048931 -0.72966068983078 -0.988150417804718 -1.01191115379333 -1.13244092464447 -1.2426153421402 -1.32746231555939 -1.45975029468536 -1.68747413158417 -1.7352831363678 -1.74041962623596 -1.7740386724472 -1.72350418567657 -1.64141070842743 -1.14186084270477 4.11321020126343 12.8133001327515
2.40417098999023 2.29836392402649 2.52870941162109 2.37300705909729 2.66025900840759 2.57948780059814 2.62297749519348 2.61482119560242 2.2419331073761 1.92676866054535 1.82916903495789 1.66095757484436 1.53726243972778 1.51127898693085 1.60095953941345 1.51484596729279 1.37741243839264 1.3030594587326 1.00025367736816 0.746084749698639 0.477735817432404 0.403145432472229 0.350732654333115 0.282706886529922 0.229129388928413 0.136264696717262 0.0615276619791985 0.00775780575349927 -0.013083029538393 -0.0471216142177582 -0.08980443328619 0.0446937866508961 0.188694640994072 0.323603987693787 0.60635244846344 0.674509942531586 0.789978206157684 0.763497114181519 0.654531300067902 0.804770469665527 0.920301973819733 0.896124005317688 0.88322639465332 0.98673290014267 1.10717642307281 0.987628221511841 0.923343360424042 0.780582904815674 0.576643466949463 0.206326574087143 0.495372503995895 0.491503775119781 0.89643007516861 1.12576842308044 1.5441220998764 1.41296994686127 1.28974616527557 1.22449994087219 0.380163937807083 0.214996516704559 0.105638556182384 0.00119534856639802 0.00791974831372499 0.0824156925082207 0.583505153656006 0.721438229084015 0.927653908729553 1.37068951129913 3.84509897232056 6.13749551773071 6.73852205276489 6.08960103988647 5.5994553565979 4.96799612045288 3.92920756340027 3.07859086990356 2.68995213508606 2.56161713600159 2.47281765937805 2.44577074050903 2.542156457901 2.42677187919617 2.59019136428833 2.46455931663513 2.57569527626038 2.46841359138489 2.11830544471741 1.78753268718719 1.71883404254913 1.5759414434433 1.41654193401337 1.36380767822266 1.20298731327057 0.993774950504303 0.81621265411377 0.566769599914551 0.381016492843628 0.372743666172028 0.32666203379631 0.317138761281967 0.309385061264038 0.312055170536041 0.420319348573685 0.448718816041946 0.507313847541809 0.558383762836456 0.550848484039307 0.539874672889709 0.446390360593796 0.390415489673615 0.358134835958481 0.368730425834656 0.378693014383316 0.367649227380753 0.141727909445763 0.109382756054401 4.1354079246521 3.00709509849548 1.07236504554749 1.12830126285553 1.31094944477081 1.53493511676788 2.02730989456177 2.61091113090515 2.83301258087158 2.83956146240234 2.94256377220154 3.11318516731262 3.05352568626404 3.06021094322205 2.92351698875427 2.81417798995972 2.64981007575989 2.44437980651855 2.24042916297913 1.96929776668549 1.82605266571045 1.54356753826141 1.45610153675079 1.38162350654602 1.73540794849396 1.83431768417358 1.87426578998566 1.80022549629211 1.71257150173187 1.67751002311707 1.56618905067444 1.42596328258514 1.2092045545578 0.902565538883209 0.697677791118622 0.410015344619751 0.147136747837067 -0.210306480526924 -0.440179824829102 -0.816939353942871 -1.17440867424011 -1.28071188926697 -1.40195822715759 -1.50717902183533 -1.63825273513794 -1.78439271450043 -1.93016886711121 -2.0496609210968 -2.10125946998596 -2.06690144538879 0.727970898151398 2.95014142990112 4.74000930786133 10.8389616012573 16.4258899688721
1.96189606189728 1.97085106372833 2.03718900680542 1.98783540725708 2.15791773796082 2.1858696937561 2.50222849845886 2.40067958831787 2.01301836967468 1.80591130256653 1.70463216304779 1.52391850948334 1.4411952495575 1.32280111312866 1.35515511035919 1.33500754833221 1.3679506778717 1.29630923271179 1.19231855869293 1.10387408733368 0.784189879894257 0.385290205478668 0.318029880523682 0.250359922647476 0.22684246301651 0.176427990198135 0.118959926068783 0.0446073971688747 -0.00379846547730267 -0.0655956938862801 -0.108973458409309 -0.166440114378929 -0.220792144536972 -0.0564588606357574 0.0992593392729759 0.260172694921494 0.418676912784576 0.28548926115036 0.397968322038651 0.509674429893494 0.478924810886383 0.617916345596313 0.702178478240967 0.752860069274902 0.753382623195648 0.765932857990265 0.851181864738464 0.691283941268921 0.663261473178864 0.379666388034821 0.251424670219421 0.149516373872757 0.315945148468018 0.36168897151947 0.6888427734375 0.748154997825623 1.19512784481049 1.12519466876984 1.00571370124817 0.731527030467987 0.168312385678291 -0.08651302754879 -0.0679075941443443 -0.0826188549399376 -0.0351758450269699 0.162306323647499 0.460178345441818 0.700248003005981 2.00399899482727 4.17100095748901 5.07398557662964 4.41075897216797 4.4050817489624 3.72985863685608 3.24082636833191 2.33354067802429 2.108966588974 1.81591141223907 1.8423262834549 1.85220777988434 1.94037044048309 1.88395726680756 2.17134022712708 2.12512063980103 2.28491735458374 2.19312453269958 2.32146000862122 1.99526822566986 1.91916000843048 1.62628734111786 1.56775879859924 1.44379377365112 1.30147969722748 1.25890445709229 1.10919070243835 0.795809388160706 0.652533888816833 0.527485966682434 0.355220019817352 0.351262897253036 0.303487300872803 0.2959985435009 0.291510313749313 0.342485010623932 0.394462764263153 0.422182440757751 0.480169951915741 0.529703915119171 0.526852071285248 0.519495129585266 0.425904363393784 0.305313587188721 0.33912181854248 0.27301225066185 0.10821171849966 0.164678424596786 6.93411207199097 4.67810869216919 1.84538650512695 1.47792017459869 0.971839785575867 1.0208580493927 1.24875152111053 1.93504214286804 2.19376420974731 2.43086743354797 2.63645219802856 2.63078141212463 2.63480973243713 2.6884753704071 2.61212515830994 2.6699652671814 2.5645911693573 2.4430091381073 2.26511883735657 2.10387992858887 1.93460547924042 1.65158867835999 1.42339169979095 1.21956610679626 1.16070830821991 1.49436318874359 1.52766060829163 1.49319708347321 1.51996946334839 1.46647369861603 1.35690176486969 1.29524719715118 1.10209321975708 0.835251152515411 0.576978325843811 0.251180022954941 -0.0729195773601532 -0.362349092960358 -0.688117623329163 -0.988898932933807 -1.28502976894379 -1.42577433586121 -1.45323538780212 -1.60694122314453 -1.81521463394165 -2.0233633518219 -2.14793181419373 -2.23976492881775 -2.30428600311279 0.622462391853333 5.68562936782837 7.45325374603271 11.0373163223267 16.8661212921143 15.4833526611328
1.93923056125641 1.8723121881485 1.7160325050354 1.67704606056213 1.76934123039246 2.01561450958252 3.19997835159302 2.19583010673523 1.84952008724213 1.51363825798035 1.48833334445953 1.39416944980621 1.32221519947052 1.21853756904602 1.16435313224792 1.14027786254883 1.14737260341644 1.13469862937927 1.17464590072632 1.11100256443024 0.981997668743134 0.675965428352356 0.464265197515488 0.216993287205696 0.208239153027534 0.174222052097321 0.122227318584919 0.0911645293235779 0.0610608719289303 -0.018673550337553 -0.081666886806488 -0.150846764445305 -0.216379642486572 -0.189380452036858 -0.212195545434952 0.0813799351453781 0.195050418376923 -0.0420278087258339 0.466391235589981 0.289797246456146 0.244924485683441 0.360992521047592 0.532607734203339 0.594600975513458 0.550200283527374 0.565200209617615 0.525581896305084 0.487603425979614 0.562342584133148 0.556690275669098 0.479503810405731 0.270444095134735 0.186307474970818 0.0807352587580681 -0.359633445739746 -0.717298805713654 0.196128368377686 0.552107214927673 0.837668776512146 0.757832646369934 0.71200430393219 0.456798732280731 -0.055208683013916 -0.353023380041122 -0.539995968341827 -0.294916242361069 -0.381026268005371 -0.108017109334469 1.54831826686859 3.64526510238647 4.05844306945801 3.20814251899719 2.89340043067932 2.17199277877808 1.8905394077301 1.71653723716736 1.61740267276764 1.36598348617554 1.42511987686157 1.30451428890228 1.40717911720276 1.44399070739746 1.79667007923126 1.96872758865356 1.96983993053436 1.88897919654846 2.0529203414917 2.1778416633606 2.10152745246887 1.8195081949234 1.75393462181091 1.48914694786072 1.44661831855774 1.32923984527588 1.20187222957611 1.06516945362091 0.890183985233307 0.733756482601166 0.608532011508942 0.493003964424133 0.334606885910034 0.327134549617767 0.283386528491974 0.277348130941391 0.279474377632141 0.323151409626007 0.373450189828873 0.465219080448151 0.513674855232239 0.507811069488525 0.503559470176697 0.413201510906219 0.2751604616642 0.136391043663025 0.0405844487249851 3.73946499824524 5.85056972503662 3.80302405357361 2.80530571937561 2.27120184898376 1.09696662425995 0.954591989517212 0.886049747467041 0.99318528175354 1.34699654579163 1.79598140716553 2.01544141769409 2.20846700668335 2.28988933563232 2.18747735023499 2.22627139091492 2.29405903816223 2.41012287139893 2.2875235080719 2.20833444595337 2.11343502998352 1.96814680099487 1.77572762966156 1.60151278972626 1.47121334075928 1.20253002643585 1.02833902835846 0.949629366397858 1.20193302631378 1.20124495029449 1.16462695598602 1.15567111968994 1.04841887950897 0.923450350761414 0.698295116424561 0.480599343776703 0.161331936717033 -0.243989735841751 -0.680858671665192 -0.886495351791382 -1.13724720478058 -1.3921502828598 -1.48101758956909 -1.50752210617065 -1.07026624679565 -1.30409562587738 -2.01862454414368 -0.800012350082397 1.69501042366028 4.54616928100586 8.38483047485352 12.5335884094238 13.7206001281738 17.7130241394043 15.7289533615112 12.3982191085815
2.14115500450134 2.00490498542786 1.81375896930695 1.71331357955933 1.89307391643524 2.49612379074097 2.5155177116394 1.79658830165863 1.58656346797943 1.39965832233429 1.2901052236557 1.21467518806458 1.14979457855225 1.08342826366425 1.06858992576599 1.01921379566193 0.956859350204468 0.954206049442291 0.98218160867691 0.957406222820282 1.01005482673645 0.86929327249527 0.775575339794159 0.495827674865723 0.325487196445465 0.152016162872314 0.11654232442379 0.0999171510338783 0.0656244829297066 0.0406410917639732 -0.0134498560801148 -0.0494349449872971 -0.151242062449455 -0.0703393220901489 -0.188366234302521 -0.06340391933918 -0.138224974274635 -0.224100887775421 -0.195309445261955 -0.146962702274323 -0.0607939660549164 0.018995301797986 0.270278483629227 0.219027295708656 0.370575785636902 0.41610312461853 0.339092165231705 0.314039468765259 0.188722029328346 0.410702615976334 0.333294063806534 0.395738363265991 0.349685281515121 0.156082481145859 -0.132578358054161 -0.754484534263611 -0.69834303855896 1.88819706439972 0.454153716564178 0.647386133670807 0.590757608413696 0.390878528356552 0.0330779850482941 -0.398705571889877 -0.966534197330475 -0.750061750411987 -0.342900067567825 -0.304515391588211 1.72126662731171 4.08750343322754 3.58216524124146 2.52638626098633 1.5380095243454 0.911619126796722 0.519343256950378 0.609337687492371 0.713598906993866 1.05630171298981 1.14875149726868 1.04804372787476 1.00386548042297 1.42820882797241 5.25427865982056 3.96097445487976 1.75440692901611 1.67126071453094 1.78834593296051 1.93791472911835 1.87019348144531 1.99390494823456 1.92825353145599 1.67115390300751 1.615403175354 1.37716341018677 1.27599084377289 1.1455717086792 1.1236652135849 0.993186831474304 0.826366007328033 0.681238174438477 0.570473372936249 0.470253169536591 0.31491094827652 0.270948231220245 0.26331952214241 0.256772488355637 0.257809817790985 0.359854221343994 0.385287076234818 0.440286755561829 0.480082213878632 0.45318815112114 0.215797662734985 -0.014857605099678 -0.0853918716311455 2.23555397987366 4.04416418075562 2.65558695793152 2.34370923042297 1.757368683815 1.66521596908569 1.45834219455719 0.741151988506317 0.699799776077271 0.873654007911682 1.00612151622772 1.18208432197571 1.57644534111023 1.69382035732269 1.80986940860748 1.94242250919342 1.98975598812103 2.04314923286438 1.97486817836761 2.06878018379211 1.99003195762634 1.94190919399261 1.81786227226257 1.70925748348236 1.59336924552917 1.32758784294128 1.06567454338074 0.902594864368439 0.786026835441589 0.719521224498749 0.875304877758026 0.834741950035095 0.740043342113495 0.691083967685699 0.477453887462616 0.342743903398514 -0.0108970683068037 -0.437857836484909 -0.908774375915527 -1.08964502811432 -1.20868182182312 -1.39684820175171 -1.48960518836975 0.894170343875885 2.32912993431091 3.9987621307373 5.18756818771362 8.29666233062744 12.0460405349731 13.5760974884033 15.5593090057373 16.6144123077393 17.0026245117188 14.8736219406128 12.6269760131836 11.1394357681274
2.54103255271912 2.19436430931091 1.93817794322968 1.78868746757507 1.69044899940491 1.86042416095734 1.88061833381653 1.44253170490265 1.37093091011047 1.24224972724915 1.1536670923233 1.02282106876373 0.950441062450409 0.915636479854584 0.900902271270752 0.859322428703308 0.851106345653534 0.830609381198883 0.787851095199585 0.782810866832733 0.795908629894257 0.906525254249573 0.856131851673126 0.74997878074646 0.828607857227325 0.429330736398697 0.211333692073822 0.0544847175478935 0.0346622467041016 0.0300630163401365 0.0146877141669393 -0.00725190900266171 -0.078089252114296 -0.203025653958321 -0.245187431573868 -0.282932162284851 -0.335036188364029 -0.376147538423538 -0.39163139462471 -0.399277329444885 -0.333302021026611 -0.242939174175262 -0.068917840719223 -0.0112017281353474 0.136808469891548 0.0793210417032242 0.182616055011749 0.141544684767723 0.00285077723674476 0.0390159115195274 0.0877271816134453 0.22679415345192 0.179446250200272 0.178293034434319 -0.0460331104695797 -0.463171005249023 -0.290000081062317 1.17947745323181 2.1068811416626 1.07563543319702 0.0787728726863861 0.0550245940685272 -0.555654883384705 -1.26761221885681 -1.18100833892822 -1.08852159976959 1.86256623268127 2.67969799041748 2.40462851524353 3.74699687957764 3.51523470878601 2.11133170127869 0.372469544410706 -0.0222372282296419 -0.200102776288986 -0.199190020561218 -0.0807133913040161 0.222021102905273 0.545392870903015 0.951872289180756 1.20545434951782 4.71367454528809 6.95109224319458 4.54735136032104 2.54875016212463 2.05943036079407 1.58991396427155 1.67511200904846 1.64127683639526 1.77141082286835 1.71366572380066 1.83248507976532 1.76926064491272 1.54092299938202 1.3162876367569 1.27866458892822 1.18650603294373 1.07483124732971 1.05419564247131 0.927047729492188 0.779975295066833 0.649820029735565 0.452000111341476 0.301232129335403 0.288268774747849 0.246961340308189 0.242832228541374 0.244764417409897 0.268708199262619 0.239045992493629 0.177866533398628 0.133187308907509 -0.0328332260251045 -0.201640874147415 -0.246630847454071 -0.132519364356995 1.93508720397949 0.870820343494415 1.73716330528259 1.10261058807373 1.4084620475769 1.17907643318176 1.16780054569244 0.547388553619385 0.544422924518585 0.659737765789032 0.686725616455078 0.805339574813843 0.916708528995514 1.23910808563232 1.57265186309814 1.65583980083466 1.60079169273376 1.66052854061127 1.73833549022675 1.70659196376801 1.82001793384552 1.78731322288513 1.70151686668396 1.591437458992 1.43645429611206 1.15052628517151 0.93219119310379 0.733653664588928 0.616622447967529 0.54045307636261 0.423237919807434 0.448746889829636 0.405390948057175 0.252487480640411 0.128926217556 -0.256386667490005 -0.773523926734924 -1.01932334899902 -1.15661633014679 -1.2907782793045 -1.29464936256409 2.15649271011353 3.03706455230713 6.82764196395874 9.81012535095215 11.6658191680908 13.9587211608887 15.9195232391357 14.1260614395142 13.4902172088623 12.575553894043 12.1750288009644 11.6929559707642 8.77541160583496 8.99447822570801
3.84764099121094 3.083247423172 2.28661322593689 1.88255631923676 1.79266166687012 1.85716032981873 1.87217175960541 1.40228509902954 1.32917261123657 1.10106039047241 1.06239438056946 0.967220664024353 0.890954256057739 0.819615125656128 0.739130914211273 0.717779576778412 0.717208027839661 0.7128746509552 0.648950517177582 0.6651651263237 0.606724858283997 0.685715436935425 0.656181752681732 0.702221572399139 0.62672358751297 0.542747497558594 0.473499953746796 0.239685654640198 -0.0133016929030418 0.00218134373426437 -0.00706990668550134 -0.0262583587318659 -0.0483588948845863 -0.146441340446472 -0.228059306740761 -0.286606848239899 -0.339042633771896 -0.374230027198792 -0.407731950283051 -0.437494367361069 -0.476355105638504 -0.498786240816116 -0.322498440742493 -0.256069242954254 -0.169780671596527 -0.134745314717293 -0.0619420483708382 -0.220342129468918 -0.155149102210999 -0.166676133871078 -0.16662660241127 -0.160612776875496 -0.108729124069214 -0.032915323972702 -0.249098181724548 -0.411637455224991 -0.406952083110809 1.49549698829651 1.74784123897552 1.72080266475677 0.345694899559021 -0.63437283039093 -1.10270190238953 -1.47987985610962 -1.35514283180237 4.06273698806763 6.37853765487671 7.37002658843994 5.75916004180908 3.79945373535156 3.38908267021179 1.11503088474274 -0.630878388881683 -0.731951415538788 -0.660903930664062 -0.422333121299744 -0.26716411113739 -0.238676264882088 0.685470163822174 1.93546545505524 2.89252376556396 6.79364347457886 8.16727638244629 4.47774028778076 3.62694144248962 2.32953834533691 1.64593923091888 1.49770224094391 1.44170784950256 1.52797770500183 1.50797152519226 1.63022673130035 1.57238399982452 1.68566465377808 1.46489775180817 1.42472183704376 1.22203946113586 1.20225989818573 1.11485624313354 1.00912296772003 0.987497270107269 0.871873140335083 0.623414814472198 0.523639321327209 0.41531765460968 0.270161390304565 0.272228479385376 0.20080977678299 0.0110663212835789 -0.175942689180374 -0.225785762071609 -0.258683383464813 -0.353989809751511 -0.4612657725811 -0.513571977615356 -0.423712521791458 -0.411905348300934 -0.534233927726746 -0.509935140609741 -0.419841885566711 -0.390215903520584 0.435071438550949 0.372098565101624 0.605618178844452 0.504142820835114 0.317971140146255 0.395228236913681 0.471129477024078 0.45630019903183 0.574494779109955 0.994296431541443 1.08028399944305 1.25533020496368 1.3598301410675 1.332843542099 1.4219229221344 1.50869393348694 1.63191056251526 1.53033113479614 1.48181521892548 1.39373230934143 1.19951069355011 0.857901751995087 0.654993653297424 0.484246343374252 0.349566459655762 0.303356111049652 0.205947861075401 0.113789223134518 -0.0679815858602524 -0.248734846711159 -0.586985290050507 -0.89022833108902 -1.12309551239014 -1.29010128974915 -1.245973944664 2.61661553382874 5.34008884429932 7.15684461593628 12.3516731262207 14.9058294296265 13.7313566207886 13.097505569458 11.688551902771 9.81522560119629 9.26501083374023 8.06517124176025 8.03546619415283 7.77092933654785 6.18950843811035 5.36841297149658
4.77787494659424 4.47736930847168 2.93106007575989 2.29981112480164 1.99158275127411 1.78112173080444 1.76287996768951 1.38365018367767 1.2812647819519 1.14405882358551 1.04142844676971 0.920121073722839 0.834464967250824 0.752408862113953 0.674118041992188 0.635974407196045 0.579539656639099 0.573328495025635 0.529718399047852 0.534404039382935 0.467811346054077 0.500370442867279 0.500000953674316 0.518394291400909 0.482128798961639 0.538175761699677 0.481443732976913 0.408811420202255 0.189732477068901 0.0682488456368446 -0.0455427058041096 -0.0551675260066986 -0.0649182572960854 -0.126490846276283 -0.215651601552963 -0.278944104909897 -0.334266781806946 -0.391113549470901 -0.456541508436203 -0.497046917676926 -0.520333468914032 -0.576070129871368 -0.584666609764099 -0.495775729417801 -0.417732805013657 -0.363597840070724 -0.352824956178665 -0.450903177261353 -0.386685937643051 -0.299623787403107 -0.348047167062759 -0.40102019906044 -0.389825195074081 -0.441524893045425 -0.457038849592209 -0.473878651857376 0.528370559215546 1.33975172042847 0.639328181743622 0.463621556758881 0.0997157990932465 -0.795087158679962 -1.16030335426331 -1.35720825195312 1.65997695922852 8.39061641693115 8.43463134765625 7.37976026535034 6.83997964859009 6.11233901977539 4.08203887939453 1.09624111652374 -0.877600967884064 -0.944013059139252 -0.827399134635925 -0.201477512717247 0.489089339971542 0.0882276520133018 0.0312419701367617 1.77815651893616 4.10641765594482 7.13226079940796 8.22071647644043 5.32779693603516 4.27367925643921 2.91123676300049 2.4466507434845 1.54524767398834 1.34433126449585 1.36596584320068 1.32185065746307 1.40657043457031 1.38851547241211 1.489462018013 1.60037279129028 1.56074547767639 1.36322844028473 1.33454406261444 1.15014886856079 1.1256251335144 1.04267942905426 0.943578660488129 0.831449031829834 0.702028274536133 0.580397546291351 0.488931864500046 0.37310516834259 0.0327514335513115 -0.299753725528717 -0.521553993225098 -0.647966802120209 -0.600169122219086 -0.715338587760925 -0.881689548492432 -1.02962946891785 -1.08784914016724 -1.08819210529327 -1.36233162879944 -1.77859437465668 -1.85475444793701 -1.60179221630096 -1.02821719646454 -0.527035176753998 -0.337376832962036 -0.150652781128883 0.0854652747511864 0.0185304153710604 0.161913514137268 0.160682216286659 0.164621159434319 0.197991445660591 0.359774649143219 0.690996110439301 0.817083835601807 1.00890278816223 1.18045341968536 1.24477446079254 1.30760788917542 1.20324170589447 1.30652892589569 1.22529423236847 1.18190908432007 0.81385725736618 0.570252060890198 0.369764149188995 0.19718636572361 0.0669730082154274 -0.105028726160526 -0.333594530820847 -0.543976843357086 -0.621921181678772 -0.944008111953735 -1.16206955909729 -1.29586100578308 -1.38504934310913 2.33202314376831 7.51899433135986 10.3304243087769 13.7974224090576 15.73854637146 13.2028570175171 10.7526359558105 9.57309341430664 7.67564344406128 6.74424886703491 6.13919258117676 5.99168682098389 5.73111438751221 5.46256685256958 5.31794309616089 4.92279005050659
5.38455390930176 5.14068174362183 4.05643653869629 3.20901036262512 2.63319969177246 2.14549422264099 1.94273030757904 1.48481547832489 1.23784744739532 1.12168157100677 1.02069628238678 0.893676459789276 0.783768773078918 0.679311215877533 0.599673688411713 0.553326189517975 0.519969642162323 0.475485742092133 0.42157569527626 0.399495154619217 0.366169363260269 0.35884165763855 0.393985629081726 0.359962612390518 0.35356941819191 0.38384410738945 0.352998465299606 0.412871062755585 0.353528261184692 0.307222723960876 0.0950383394956589 -0.0159647930413485 -0.110449969768524 -0.158006370067596 -0.231229364871979 -0.328800827264786 -0.375631719827652 -0.448741346597672 -0.510213494300842 -0.560617864131927 -0.597406148910522 -0.64879709482193 -0.679800570011139 -0.709508240222931 -0.658417284488678 -0.586176514625549 -0.559690356254578 -0.576685309410095 -0.562122344970703 -0.448786318302155 -0.673242747783661 -0.721241056919098 -0.816965639591217 -0.696750998497009 -0.66797548532486 -0.761568605899811 -0.513743102550507 0.0970763340592384 0.589062094688416 0.459281980991364 -0.319481611251831 -0.592010676860809 -0.84759920835495 1.07593429088593 4.69693231582642 7.51548147201538 6.80272817611694 7.20726013183594 7.34868907928467 6.08563566207886 4.97719621658325 2.25784802436829 -1.03594326972961 -1.12092268466949 -1.04775154590607 0.0169894266873598 0.165110379457474 0.0790456831455231 0.300055205821991 1.54364824295044 4.95287609100342 8.38630104064941 9.1431827545166 5.81765222549438 4.36072063446045 3.442467212677 2.90501141548157 2.01851797103882 1.32367730140686 1.2718802690506 1.23197937011719 1.2579357624054 1.20901429653168 1.31232368946075 1.41996645927429 1.38161015510559 1.49474394321442 1.46032762527466 1.28184604644775 1.2536199092865 1.08096396923065 1.00074052810669 0.904023468494415 0.882836759090424 0.780633091926575 0.647502243518829 0.3673996925354 -0.144041731953621 -0.718659520149231 -0.97035801410675 -1.04512560367584 -0.93793123960495 -1.09647274017334 -1.3269190788269 -1.56777143478394 -1.76343679428101 -1.90061247348785 -2.24189686775208 -2.66488933563232 -2.89041566848755 -2.55336785316467 2.88441920280457 10.2384099960327 5.59548997879028 0.34768944978714 -0.376363188028336 -0.349325239658356 -0.276090532541275 -0.217280268669128 -0.143328338861465 -0.176238641142845 -0.0738126486539841 -0.0378569476306438 0.110127329826355 0.505175828933716 0.841265678405762 0.929319322109222 0.920579075813293 0.951535046100616 0.987065851688385 0.978945553302765 0.977958142757416 0.747570216655731 0.438606202602386 0.171268150210381 -0.0383634641766548 -0.234768912196159 -0.481149762868881 -0.650031089782715 -0.867332339286804 -1.19491362571716 -1.44214975833893 -1.47024261951447 -1.48150932788849 -1.16765332221985 4.98994016647339 8.15960311889648 12.9532451629639 14.2343816757202 12.2013463973999 10.8859996795654 9.43843650817871 7.51175928115845 6.79717969894409 5.47935390472412 4.70709037780762 4.28658390045166 3.99918293952942 4.13687753677368 4.52147817611694 4.65946578979492
5.3782205581665 4.90573453903198 4.66306161880493 3.74235224723816 3.55581569671631 2.8659200668335 2.44725441932678 1.80337190628052 1.39907550811768 1.06946969032288 0.97267359495163 0.835261583328247 0.763505756855011 0.643149614334106 0.544201850891113 0.4669129550457 0.427873104810715 0.398637324571609 0.373546570539474 0.335163205862045 0.249737784266472 0.2283745855093 0.252661764621735 0.22528849542141 0.258878171443939 0.238381236791611 0.226572662591934 0.285607278347015 0.353461772203445 0.304757833480835 0.237963035702705 0.199278637766838 0.0117318956181407 -0.185184046626091 -0.257787138223648 -0.364685535430908 -0.422137171030045 -0.458625465631485 -0.534925699234009 -0.611283838748932 -0.631174027919769 -0.679942309856415 -0.730536639690399 -0.773402810096741 -0.819371402263641 -0.777517914772034 -0.746901512145996 -0.709004640579224 -0.678929090499878 -0.618875682353973 -0.851798057556152 -0.985160112380981 -1.19536674022675 -1.0755090713501 -0.895936369895935 -0.897742092609406 -0.222144529223442 0.965234756469727 0.956352949142456 0.31135368347168 0.176655754446983 -0.0294988378882408 2.24715638160706 3.6674280166626 3.98963022232056 5.09481620788574 4.97014427185059 5.84177684783936 6.39931058883667 6.15001487731934 4.7732048034668 1.73688459396362 -1.0501526594162 -1.25050783157349 -1.24614334106445 -1.173011302948 -1.05032312870026 -0.580336153507233 0.110165387392044 2.08118391036987 5.25726985931396 8.87453174591064 9.79910278320312 7.07064151763916 4.90616226196289 3.85972094535828 2.93497800827026 2.40668272972107 1.9109582901001 1.59554469585419 1.20336043834686 1.17299568653107 1.12844264507294 1.13765072822571 1.22093677520752 1.22411060333252 1.32486975193024 1.29215455055237 1.40777659416199 1.37554204463959 1.20986187458038 1.04623532295227 1.0245246887207 0.945625007152557 0.852569699287415 0.670364201068878 0.26836171746254 -0.316067099571228 -1.01577925682068 -1.32632172107697 -1.37591409683228 -1.28691136837006 -1.46746098995209 -1.76234471797943 -2.04677772521973 -2.4868369102478 -2.68423414230347 -2.75466203689575 -3.03437542915344 -3.20828151702881 -3.23462319374084 6.0168080329895 18.5908813476562 13.8367433547974 8.58838653564453 4.49345445632935 0.403609812259674 -0.466348826885223 -0.473660737276077 -0.578242838382721 -0.537328779697418 -0.373178154230118 -0.345439583063126 -0.319737195968628 -0.133939996361732 0.259277611970901 0.381932526826859 0.585874497890472 0.64416116476059 0.574177742004395 0.597666919231415 0.600679457187653 0.394308269023895 0.14778271317482 -0.158950075507164 -0.384779930114746 -0.600650370121002 -0.925871312618256 -1.29080438613892 -1.47480714321136 -1.68914556503296 -1.87039971351624 -1.79853785037994 -1.57686042785645 4.13992404937744 7.39734268188477 10.916446685791 14.5866937637329 13.2731027603149 11.063982963562 9.35902690887451 8.07789516448975 7.0351619720459 5.83865642547607 4.83378648757935 3.72558856010437 3.30861115455627 3.10663032531738 2.87203741073608 3.28065609931946 3.65848898887634
4.63044357299805 4.85461044311523 4.33587789535522 4.21954822540283 3.99990653991699 3.25574016571045 3.19778561592102 2.2236864566803 1.70755040645599 1.2741504907608 1.00083470344543 0.762814044952393 0.693732976913452 0.580531597137451 0.506644546985626 0.424232482910156 0.377463400363922 0.324001044034958 0.300735533237457 0.291803866624832 0.251405656337738 0.194517448544502 0.141332939267159 0.145788192749023 0.142437070608139 0.11604917794466 0.146907761693001 0.13005992770195 0.209639236330986 0.179885789752007 0.23784439265728 0.197271227836609 0.15304696559906 -0.0270068496465683 -0.116886578500271 -0.265146791934967 -0.429908633232117 -0.51810610294342 -0.584238529205322 -0.621084630489349 -0.682930588722229 -0.732903599739075 -0.78384256362915 -0.816335022449493 -0.861977815628052 -0.920670211315155 -0.883970022201538 -0.852770328521729 -0.827589333057404 -0.76806378364563 -0.985698938369751 -1.12976586818695 -1.45611572265625 -1.30176150798798 -0.10700611025095 0.795189738273621 0.976619839668274 1.055251121521 0.551158845424652 0.49961930513382 0.404730767011642 0.810992836952209 2.41145086288452 2.59116768836975 2.24129271507263 1.90722763538361 2.84441518783569 5.02561855316162 5.15000104904175 4.83594560623169 3.26510405540466 1.6455043554306 -0.245217472314835 -0.900935411453247 -1.31686222553253 -1.3603823184967 -1.31818580627441 -0.613514184951782 1.96974050998688 4.29362964630127 7.77929401397705 10.1074514389038 10.6672306060791 8.13738632202148 5.8661642074585 4.73878812789917 3.28669214248657 2.55547523498535 2.25664258003235 1.89545571804047 1.57303404808044 1.31569969654083 1.10532808303833 1.06705737113953 1.09056115150452 1.06331372261047 1.14055144786835 1.14814603328705 1.24878752231598 1.22081089019775 1.32506370544434 1.16652393341064 1.14736270904541 0.991216421127319 0.921009063720703 0.507880687713623 0.0861910805106163 -0.541691839694977 -1.34604525566101 -1.49497377872467 -1.46356594562531 -1.54352927207947 -1.78619241714478 -2.23875784873962 -2.61993265151978 -2.92577362060547 -3.15146017074585 -3.23675346374512 -3.40585374832153 -3.68987989425659 -3.73749876022339 -3.40795016288757 7.379075050354 14.1354570388794 14.8013515472412 9.0529146194458 6.54811668395996 3.07743620872498 -0.567973554134369 -0.744076371192932 -0.796663522720337 -0.802645623683929 -0.729548633098602 -0.70128607749939 -0.679208099842072 -0.555489659309387 -0.335139274597168 0.0295101385563612 0.128922551870346 0.0540780425071716 -0.0335983671247959 -0.0471000485122204 -0.1168367639184 -0.294022858142853 -0.539377272129059 -0.788640081882477 -1.18458986282349 -1.69066679477692 -2.03893852233887 -2.15167713165283 -2.35551381111145 -2.377934217453 -2.04387021064758 0.45963978767395 7.52476644515991 10.7391347885132 13.1500186920166 14.276047706604 11.9091463088989 10.2554454803467 8.56106472015381 7.47013854980469 6.5690131187439 5.69675254821777 4.67714405059814 3.63418507575989 2.72773933410645 2.52536916732788 2.6593074798584 3.41508817672729 5.57012414932251
3.71303820610046 4.18539381027222 4.28350877761841 4.16337060928345 3.57266759872437 3.65838861465454 3.55887603759766 2.92772197723389 2.28967905044556 1.65197062492371 1.25701856613159 0.825922131538391 0.629740595817566 0.501197040081024 0.452640354633331 0.373860567808151 0.327733188867569 0.288176119327545 0.242698028683662 0.214716359972954 0.180843845009804 0.170018941164017 0.131197288632393 0.0838193073868752 0.0397455878555775 0.0379067584872246 0.0362574346363544 0.0136586325243115 0.0816571190953255 0.0697366520762444 0.105981767177582 0.08476372808218 0.153219014406204 0.111249893903732 0.0796451196074486 -0.097962997853756 -0.311952143907547 -0.50535649061203 -0.617759346961975 -0.67192280292511 -0.732629299163818 -0.800218224525452 -0.854048728942871 -0.871200263500214 -0.900373935699463 -0.941203117370605 -0.988238394260406 -0.976843655109406 -0.951003551483154 -0.938667714595795 -1.048943400383 -1.14825797080994 -1.32221710681915 2.34999799728394 3.79029440879822 2.83182263374329 2.28257751464844 1.54585433006287 0.708391547203064 0.385748982429504 0.46648782491684 2.79303598403931 2.53908276557922 1.40274930000305 1.13715994358063 0.724877417087555 1.45835244655609 4.38299417495728 3.27447319030762 2.64280557632446 1.68650710582733 0.625061094760895 -0.397500723600388 -0.741453468799591 -1.01511466503143 -1.23025000095367 -1.39710760116577 0.391221135854721 5.21920013427734 8.3249454498291 11.4730882644653 13.5289621353149 12.025577545166 9.29349994659424 6.80295991897583 5.43684387207031 3.9593300819397 3.06210350990295 2.54479575157166 2.09742045402527 1.86628806591034 1.56186759471893 1.19524168968201 1.04341471195221 1.01959109306335 0.987585663795471 1.01472568511963 0.992390394210815 1.07116520404816 1.08549070358276 1.17483150959015 1.27708315849304 1.25534737110138 1.108522772789 0.985418379306793 0.368172168731689 -0.0474232099950314 -0.837056159973145 -1.4516704082489 -1.73271095752716 -1.65975940227509 -1.72864961624146 -2.03148460388184 -2.53271126747131 -2.96767139434814 -3.19161939620972 -3.52657556533813 -3.67987751960754 -3.79498863220215 -3.92761945724487 -3.94875764846802 -0.286841541528702 4.74479484558105 7.42195844650269 19.2177486419678 17.108829498291 11.6413564682007 6.59882307052612 2.17571806907654 -0.961345136165619 -1.04369294643402 -1.10260915756226 -1.23227047920227 -1.23802185058594 -1.1260974407196 -1.05047023296356 -0.856867790222168 -0.766898036003113 -0.591491520404816 -0.562049627304077 -0.588384747505188 -0.677757620811462 -0.727001368999481 -0.846563398838043 -1.06845462322235 -1.38997232913971 -1.93379092216492 -2.51757860183716 -2.74416875839233 -2.84961533546448 -3.01965951919556 -2.76705479621887 -1.76594185829163 4.30656623840332 9.50078582763672 10.7214736938477 10.1259851455688 10.2637214660645 10.391565322876 8.84957122802734 8.13037204742432 7.11182117462158 6.24420356750488 5.5704870223999 4.86030530929565 3.87835645675659 3.14269804954529 3.80443143844604 8.00176334381104 9.87113380432129 10.1115121841431
2.92415165901184 3.21689987182617 4.05453443527222 3.94175744056702 3.68763995170593 3.25514125823975 3.11266851425171 3.26975512504578 2.54989194869995 2.22348475456238 1.74208998680115 1.14330244064331 0.82597291469574 0.487650454044342 0.35529750585556 0.290990442037582 0.278867959976196 0.244183138012886 0.205400943756104 0.18053126335144 0.148132219910622 0.115875527262688 0.0855403617024422 0.0438945665955544 0.0129485679790378 -0.00739812292158604 -0.0517640821635723 -0.0489605665206909 -0.022912185639143 -0.0016040817135945 -0.0182883124798536 -0.0267240051180124 0.0469085313379765 0.106799431145191 0.0604811049997807 0.0249520689249039 -0.153448343276978 -0.424480199813843 -0.623508274555206 -0.739246487617493 -0.793282389640808 -0.861063659191132 -0.900810897350311 -0.924444615840912 -0.93392288684845 -0.960905611515045 -1.00110673904419 -1.0467928647995 -1.0433337688446 -1.03846192359924 -1.10561752319336 -1.16205990314484 -1.29908907413483 -0.290483027696609 1.67261040210724 1.69712388515472 2.5480809211731 2.22040963172913 1.50885713100433 1.14498233795166 2.10136580467224 3.11333680152893 1.99930357933044 1.35034453868866 0.945356547832489 0.335375159978867 1.32767128944397 4.15306901931763 2.59041309356689 1.14871966838837 -0.119329273700714 -0.483017265796661 -1.32789421081543 -1.21085000038147 -1.16230392456055 -1.16766333580017 -1.28111720085144 1.07636880874634 4.10483121871948 6.48222398757935 12.7482671737671 15.1982097625732 12.6969108581543 11.1875410079956 7.65183353424072 6.26062631607056 4.58713245391846 3.65738582611084 3.11430501937866 2.50886273384094 2.09649610519409 1.68648707866669 1.40411067008972 1.20313060283661 0.998278379440308 0.971693396568298 0.951070427894592 0.92444920539856 0.959222137928009 0.937216937541962 1.04791712760925 1.13090562820435 1.10623371601105 1.21258807182312 1.0732479095459 0.364757597446442 -0.192201599478722 -0.697895765304565 -1.47288525104523 -1.80673611164093 -1.88030529022217 -0.320773631334305 -2.19749522209167 -2.56904053688049 -3.01976728439331 -3.34565997123718 -3.63587427139282 -3.98837995529175 -4.03284502029419 -4.0839319229126 -4.12900352478027 -1.48176336288452 1.10127520561218 4.82023954391479 12.0562257766724 27.7412414550781 17.1802253723145 10.9814729690552 4.27765417098999 1.58825957775116 -1.40785348415375 -1.46385562419891 -1.51979267597198 -1.58792090415955 -1.62179720401764 -1.45814955234528 -1.25990426540375 -1.18281054496765 -1.11628139019012 -1.06902897357941 -1.07509613037109 -1.08321106433868 -1.20460164546967 -1.47868752479553 -1.71114444732666 -2.07268857955933 -2.64362406730652 -3.11873459815979 -3.30845236778259 -3.32967662811279 -3.32465362548828 0.142687559127808 3.35925936698914 5.78860187530518 9.52036666870117 10.5103216171265 9.6831111907959 9.25126647949219 8.11610317230225 7.6344780921936 7.03143310546875 6.41474676132202 5.95023202896118 5.2719464302063 4.67111158370972 4.28688478469849 3.91568827629089 7.2926173210144 9.90518188476562 9.47629737854004 9.53487205505371
2.37692070007324 2.49722528457642 3.37563467025757 3.61886405944824 3.51720881462097 3.28828358650208 3.19122314453125 2.87946128845215 2.850337266922 2.5097074508667 1.91517949104309 1.67609250545502 1.23326945304871 0.755450963973999 0.355319976806641 0.249922156333923 0.206685125827789 0.189926236867905 0.168298780918121 0.140080526471138 0.122711874544621 0.107777588069439 0.07341118901968 -7.20232928870246e-05 -0.0380162969231606 -0.0359718427062035 -0.0599269866943359 -0.0890517607331276 -0.115788176655769 -0.099912166595459 -0.125987485051155 -0.0971206650137901 -0.0904004797339439 -0.020956888794899 -0.0496574193239212 0.00687592290341854 -0.111567914485931 -0.317214816808701 -0.58013778924942 -0.762574553489685 -0.859647870063782 -0.909698486328125 -0.968818187713623 -0.995987832546234 -0.973994135856628 -0.915274083614349 -1.00513744354248 -1.05286383628845 -1.10224401950836 -1.12671518325806 -1.1714072227478 -1.21913015842438 -1.25982785224915 -0.845875084400177 0.533228814601898 0.645217061042786 1.13382339477539 1.53612196445465 1.79264998435974 1.52092838287354 1.48074746131897 1.4530336856842 1.43156814575195 1.32414853572845 1.02491629123688 0.716699123382568 2.1090247631073 3.16506147384644 1.75720381736755 0.463518410921097 -0.884411871433258 -1.17295157909393 -1.28784465789795 -1.39923286437988 -1.46421122550964 -1.40185439586639 -1.35359466075897 -0.929394662380219 1.0182808637619 4.80017280578613 18.2880020141602 20.0840682983398 14.9112949371338 12.0790243148804 9.16793346405029 7.5663890838623 5.23450088500977 4.12947750091553 3.58952736854553 2.99215602874756 2.55721855163574 1.89872527122498 1.63048851490021 1.42979073524475 1.19197940826416 1.05505013465881 0.933210730552673 0.904018819332123 0.89144492149353 0.870875835418701 0.896356701850891 0.972368359565735 0.996371924877167 1.07161569595337 0.893431305885315 0.509354531764984 -0.0827754512429237 -0.636794686317444 -1.25099456310272 -1.77373158931732 -1.98608028888702 -2.07954120635986 -2.38210296630859 -2.7076690196991 -2.93984436988831 -3.1468198299408 -1.85551035404205 -3.98354196548462 -4.11768293380737 -2.85070824623108 -1.77246534824371 2.5284686088562 4.2458963394165 4.54495334625244 12.9656429290771 26.684009552002 25.7620544433594 17.4313011169434 10.9817609786987 4.89573621749878 0.378746718168259 -1.41780364513397 -1.93817150592804 -1.86887466907501 -1.84664821624756 -1.81376004219055 -1.69582307338715 -1.57735192775726 -1.52926003932953 -1.45739114284515 -1.46123445034027 -1.4811247587204 -1.710404753685 -2.02437353134155 -2.40618324279785 -2.79990029335022 -3.17033767700195 -3.48388695716858 -3.4520890712738 2.92930769920349 2.90159940719604 2.07781004905701 3.14536023139954 5.48579454421997 8.57405090332031 10.7406768798828 9.67272090911865 8.88277339935303 7.80601358413696 6.90632200241089 6.13605690002441 5.71732711791992 5.5123872756958 5.0218448638916 4.57214307785034 4.24793100357056 3.99793100357056 4.57642316818237 5.37270164489746 6.39917182922363 7.81730365753174
1.80191349983215 1.90290188789368 2.51825547218323 3.27991700172424 3.19655323028564 3.16100764274597 3.06066799163818 2.93174076080322 2.55672764778137 2.12898111343384 2.1557981967926 1.92311608791351 1.36955904960632 1.18814814090729 0.584427058696747 0.39179915189743 0.16973403096199 0.123962409794331 0.0969285070896149 0.0994439423084259 0.0861946642398834 0.0774387121200562 0.0560109950602055 0.005780722014606 -0.0546786673367023 -0.0874871462583542 -0.091437079012394 -0.102624647319317 -0.131951883435249 -0.163617044687271 -0.18134568631649 -0.194244042038918 -0.196510016918182 -0.144205823540688 -0.163326680660248 -0.119647443294525 -0.158707395195961 -0.285943508148193 -0.539145827293396 -0.800945281982422 -0.93553352355957 -1.00980389118195 -1.0392655134201 -1.06529307365417 -1.05521285533905 -0.399529129266739 -1.01434171199799 -1.06191682815552 -1.12195646762848 -1.17099523544312 -1.21079194545746 -1.22206139564514 -1.04942858219147 -1.28193831443787 0.0385407842695713 0.936631679534912 1.15260052680969 1.17477893829346 0.998218238353729 1.1309951543808 1.38600528240204 1.09317100048065 0.872564256191254 0.857077419757843 0.980601489543915 0.897089004516602 1.53039121627808 1.22521722316742 1.03573870658875 0.0640550255775452 -0.681138038635254 -1.05616199970245 -1.16975164413452 -1.05182325839996 -0.291497230529785 -0.156635567545891 -0.569612205028534 0.192993000149727 5.38187408447266 12.8265247344971 25.0066413879395 24.4922199249268 17.0899105072021 14.4385194778442 10.1417751312256 8.16953468322754 6.30809259414673 5.02227544784546 4.09949827194214 3.37791085243225 2.93976140022278 2.30708193778992 1.94958770275116 1.65178227424622 1.41549921035767 1.25098955631256 1.05446994304657 0.97596287727356 0.86941522359848 0.848223745822906 0.834775626659393 0.871269881725311 0.854987561702728 0.885455667972565 0.664863109588623 0.382160902023315 0.0603525973856449 -0.465519964694977 -1.13778424263 -1.67818021774292 -2.03347063064575 -0.936911702156067 -1.91943502426147 -2.80159330368042 -3.0049786567688 -3.13061213493347 -3.33686947822571 -3.94684410095215 -4.1242823600769 2.27851963043213 4.28445529937744 4.4123969078064 3.95142292976379 6.73346710205078 16.1635513305664 25.3413791656494 24.7981452941895 18.1872596740723 13.7454452514648 9.58738899230957 3.200350522995 0.0585053786635399 -2.48772764205933 -2.28453993797302 -2.17388010025024 -2.11376118659973 -2.09846591949463 -2.0915002822876 -1.96823298931122 -1.89641213417053 -1.88809263706207 -2.0312385559082 -2.2504894733429 -2.54923701286316 -3.06506013870239 -3.32220554351807 -3.52121615409851 -3.45934462547302 5.70108509063721 5.64304494857788 2.53662633895874 1.13229715824127 2.41034197807312 6.04422426223755 9.04483509063721 11.357964515686 10.2084426879883 8.55850791931152 7.27285480499268 6.46551275253296 5.84690141677856 5.29917621612549 4.8785548210144 4.38452911376953 4.3076319694519 3.97744059562683 3.85633873939514 3.67317914962769 3.83494234085083 4.29588556289673 5.43658256530762
1.24806034564972 1.59159564971924 2.46526193618774 2.98195767402649 3.12915873527527 2.83549737930298 2.78114676475525 2.83213186264038 2.45713114738464 2.06064319610596 1.78399658203125 1.57054376602173 1.58468270301819 1.38052272796631 0.985450565814972 0.73970353603363 0.374906569719315 0.22921971976757 0.0457253567874432 0.0239442344754934 0.0163950156420469 0.020370015874505 0.0165823567658663 -0.00208717631176114 -0.0523580834269524 -0.108097419142723 -0.13707047700882 -0.143482193350792 -0.152598261833191 -0.177523270249367 -0.223233908414841 -0.245446965098381 -0.249741390347481 -0.2478316873312 -0.235874027013779 -0.242369890213013 -0.271729350090027 -0.318061590194702 -0.544032692909241 -0.789910197257996 -1.01078057289124 -1.12417995929718 -1.11371552944183 -1.14067256450653 -1.15630233287811 -0.618016064167023 -0.700331449508667 -0.868401110172272 -1.1318781375885 -1.19941699504852 -1.22491645812988 -1.23577737808228 -1.25772869586945 -1.02130973339081 -0.895821690559387 0.203627824783325 0.648423552513123 0.68753856420517 0.800494194030762 0.631807804107666 0.983924508094788 1.10235452651978 1.03112244606018 0.778155982494354 0.593998670578003 0.422279804944992 0.56475305557251 0.655792593955994 0.508785307407379 0.0626520961523056 -0.428961247205734 -0.598509967327118 1.64393651485443 3.40804243087769 3.31276273727417 1.05323302745819 0.9629847407341 6.79678630828857 15.9588012695312 20.1603679656982 24.4689693450928 23.0329360961914 19.2853698730469 16.2923698425293 11.5047883987427 9.80961990356445 7.14482641220093 6.0179328918457 4.94852209091187 4.1222357749939 3.36381196975708 2.65217113494873 2.32444262504578 1.97990226745605 1.69910848140717 1.45732402801514 1.25073611736298 1.10059678554535 0.932594120502472 0.906596183776855 0.810369551181793 0.813234210014343 0.774258732795715 0.625101745128632 0.304442375898361 0.0839020237326622 -0.246329814195633 -0.656923353672028 -1.06604266166687 -1.68205296993256 -1.98860895633698 0.284619957208633 -1.42467987537384 -2.75716710090637 -3.02752876281738 -3.17341208457947 -3.38896918296814 -3.91301083564758 -4.08966636657715 3.28438138961792 2.0336492061615 0.866956770420074 1.20458590984344 2.97579097747803 12.1010541915894 18.8109016418457 18.2741317749023 17.8792552947998 14.1809177398682 11.2353715896606 5.65593338012695 1.7673807144165 -1.16734075546265 -2.64624452590942 -2.61932349205017 -2.49610185623169 -2.45990300178528 -2.49226689338684 -2.49769473075867 -2.45186257362366 -2.37642216682434 -2.52287411689758 -2.68029499053955 -2.95026111602783 -3.37415719032288 -3.56947064399719 -3.53605771064758 6.46926307678223 7.6713752746582 5.41792964935303 3.42406153678894 2.0845639705658 6.22099733352661 9.83775329589844 11.0238389968872 12.0293474197388 10.1925477981567 8.48774719238281 7.06746292114258 6.10951614379883 5.47189235687256 5.04123401641846 4.58349466323853 4.05676412582397 3.51803016662598 3.15744209289551 2.98135852813721 2.83541011810303 2.98405313491821 3.3402853012085 3.77673268318176
1.37784290313721 1.9950749874115 2.56604623794556 2.54401612281799 2.7563169002533 2.72645974159241 2.65838694572449 2.56181335449219 2.24723291397095 1.96834146976471 1.68750059604645 1.43003129959106 1.30441868305206 1.05153000354767 1.16682004928589 0.862461924552917 0.742486357688904 0.544176697731018 0.182147830724716 0.0685013830661774 -0.0547317564487457 -0.0605593733489513 -0.0619309023022652 -0.0484701283276081 -0.0889097601175308 -0.114549845457077 -0.139500692486763 -0.169063970446587 -0.193368285894394 -0.210772514343262 -0.225213885307312 -0.259312093257904 -0.283865213394165 -0.316390454769135 -0.319420516490936 -0.338929355144501 -0.336635142564774 -0.400389701128006 -0.505342066287994 -0.762712597846985 -1.03446626663208 -1.21486628055573 -1.25025141239166 -1.26669299602509 -1.28436207771301 -1.25276839733124 -0.972464203834534 -1.19540357589722 -1.16472101211548 -1.01740145683289 -1.25008320808411 -1.26643574237823 -1.29799854755402 -1.26178205013275 -1.11919236183167 -0.505325257778168 -0.0411681272089481 -0.00888830702751875 0.170498907566071 0.246037259697914 0.179996460676193 0.232193768024445 0.522321879863739 0.633638441562653 0.523454189300537 0.225436061620712 0.159410014748573 0.3357994556427 0.217923790216446 0.124611310660839 -0.0535934828221798 1.48122048377991 3.35544753074646 3.17076230049133 0.189745336771011 -0.361786425113678 1.54291999340057 7.55977630615234 15.5729341506958 17.7398853302002 18.4706039428711 18.9798126220703 17.8905563354492 15.1950435638428 12.9613542556763 11.0576400756836 8.18514060974121 6.65423011779785 5.87153053283691 4.94169473648071 4.06407403945923 3.02959084510803 2.62459826469421 2.27029228210449 2.02129602432251 1.71731269359589 1.4924373626709 1.23372507095337 1.01903164386749 0.967071712017059 0.881568729877472 0.794053077697754 0.690603196620941 0.398309230804443 0.0685245394706726 -0.292033553123474 -0.735294222831726 -1.01388943195343 -1.31796586513519 -1.72334420681 -2.02760219573975 -1.76814210414886 -2.42835259437561 -2.80573797225952 -3.08471012115479 -3.26982998847961 -3.6199631690979 -3.98980498313904 -4.1293830871582 -3.95990705490112 -4.2879753112793 -1.96449291706085 -1.91523671150208 -0.208001211285591 9.2392053604126 16.4524078369141 15.5453882217407 14.8193264007568 12.9049558639526 11.4171514511108 7.20049238204956 3.84881258010864 1.50548934936523 -0.429087311029434 -1.29509663581848 -2.80429172515869 -2.81215310096741 -2.82860040664673 -2.81150794029236 -2.77990293502808 -2.73932266235352 -2.81229901313782 -2.92428994178772 -3.1936571598053 -3.49767732620239 -3.60884857177734 3.88776278495789 8.8836669921875 7.24842739105225 4.4630126953125 3.57232522964478 3.03813457489014 9.10383224487305 11.2947521209717 11.6433687210083 10.3736362457275 8.77658081054688 7.31535339355469 7.20960760116577 6.19020128250122 5.29595756530762 4.86105108261108 4.24218082427979 3.78869724273682 3.06968545913696 2.47558045387268 1.8825888633728 1.66296398639679 1.65077793598175 2.19489812850952 2.89350008964539
2.80680632591248 3.27918243408203 2.85335683822632 2.43874740600586 2.45900058746338 2.50603938102722 2.78719925880432 2.2384078502655 1.97579562664032 1.84279263019562 1.59190464019775 1.41574335098267 1.25846433639526 0.978300929069519 0.862092196941376 1.01151216030121 0.892467677593231 0.639125883579254 0.504143059253693 0.344367027282715 0.0398425087332726 -0.138339713215828 -0.148640111088753 -0.128132730722427 -0.147212952375412 -0.1542649269104 -0.172654703259468 -0.182009190320969 -0.204986020922661 -0.230687662959099 -0.24709552526474 -0.26231062412262 -0.291010588407516 -0.330313920974731 -0.392169892787933 -0.419841110706329 -0.415902227163315 -0.490699112415314 -0.548870086669922 -0.778472304344177 -1.03600418567657 -1.28103041648865 -1.38603591918945 -1.40061926841736 -0.505057334899902 -0.443115234375 -1.36952841281891 -1.34611737728119 -1.00864374637604 -0.175007045269012 -0.681854128837585 -1.31257390975952 -1.33516228199005 -1.18118035793304 -1.10633087158203 -1.27522373199463 -0.558823764324188 -0.442186713218689 -0.270254075527191 -0.36168310046196 -0.648113012313843 -0.376481086015701 -0.406466275453568 -0.179424837231636 0.0958859771490097 0.124426022171974 0.00125566846691072 0.17763289809227 0.477898240089417 0.844793498516083 2.32919764518738 2.09135270118713 1.37792980670929 1.62056052684784 2.13203096389771 2.46450996398926 6.32867193222046 11.338737487793 19.4358901977539 19.2096481323242 17.3870067596436 15.9955015182495 15.4143295288086 14.285008430481 12.5312347412109 10.8453979492188 9.23707962036133 7.54369831085205 6.44117450714111 5.46684694290161 4.45596170425415 3.75200700759888 3.198410987854 2.61061334609985 2.29813933372498 1.98801326751709 1.79596376419067 1.52751457691193 1.23304998874664 1.06248795986176 0.947760760784149 0.856029689311981 0.757357776165009 0.357290238142014 0.0169091112911701 -0.442892163991928 -0.929348886013031 -1.22868251800537 -1.47177565097809 -1.77775728702545 -2.16248178482056 -2.36021423339844 -2.67008781433105 -3.0704391002655 -3.38732957839966 -3.63913106918335 -4.08050394058228 -4.29842376708984 -4.32077693939209 -4.38418817520142 -4.53993225097656 -4.57451105117798 -4.55067443847656 -2.2676374912262 8.28429412841797 15.4316806793213 16.4575653076172 14.4027194976807 10.6583051681519 9.42194938659668 7.53825807571411 5.17002058029175 2.71776103973389 1.44363212585449 0.276988655328751 -0.703774452209473 -1.48540103435516 -2.83420848846436 -3.0001654624939 -2.09150075912476 -1.67598295211792 -2.92223024368286 -3.02850532531738 -3.32680535316467 -3.58103370666504 -2.95000147819519 6.06260204315186 7.01839399337769 5.5426173210144 4.49093103408813 3.68139290809631 3.66088628768921 8.78535270690918 11.2081546783447 10.7469034194946 9.2362003326416 7.10557079315186 6.38791370391846 6.80059385299683 6.11360788345337 5.28609228134155 4.77093410491943 4.20174407958984 3.73705077171326 3.06385707855225 2.25461983680725 1.36217486858368 0.78793340921402 1.07762336730957 1.39620172977448 4.56684398651123
0.474494874477386 3.26688766479492 4.4542121887207 4.14963865280151 3.18200993537903 2.87414979934692 2.83223700523376 1.99858772754669 1.7167581319809 1.60920691490173 1.41780531406403 1.27199864387512 1.13254988193512 1.00631952285767 0.785804390907288 0.711336255073547 0.599763512611389 0.734944224357605 0.638377845287323 0.437824338674545 0.34107518196106 -0.0289398282766342 -0.119421809911728 -0.240204557776451 -0.222557947039604 -0.212482318282127 -0.223416730761528 -0.21822963654995 -0.221737757325172 -0.245037242770195 -0.261961877346039 -0.279090464115143 -0.302086681127548 -0.334110915660858 -0.380235016345978 -0.47084853053093 -0.480048269033432 -0.531939029693604 -0.645144104957581 -0.812559545040131 -1.0425386428833 -1.27714157104492 -1.45819163322449 -1.52836620807648 -0.841603338718414 -0.481954395771027 -1.50388467311859 -1.48046731948853 0.428712427616119 0.966650009155273 -0.462815880775452 -0.517922103404999 -1.11028587818146 -1.03280067443848 -1.18256735801697 -1.30490756034851 -1.30271100997925 -0.975902616977692 -0.809206485748291 -0.872493803501129 -1.13397777080536 -0.814342260360718 -0.848118364810944 -0.879334151744843 -0.805308282375336 -0.338014960289001 -0.144237712025642 1.08783042430878 2.99209570884705 3.5027163028717 3.9722695350647 2.5422158241272 1.63992154598236 4.01694822311401 6.27333211898804 6.70507144927979 11.9072608947754 15.872410774231 19.341775894165 17.9480304718018 16.9628658294678 15.6292943954468 14.266185760498 12.5919914245605 11.6069087982178 10.4914302825928 9.29524612426758 8.51858425140381 7.19881296157837 6.16252565383911 5.27960729598999 4.57122039794922 3.84251999855042 3.29489016532898 2.80207800865173 2.28244400024414 2.04686141014099 1.77375066280365 1.47290635108948 1.28098583221436 1.13724040985107 0.974982440471649 0.832496404647827 0.47090470790863 0.0908156782388687 -0.370427906513214 -0.874627828598022 -1.28247773647308 -1.58810591697693 -1.95613741874695 -2.39290642738342 -2.73642325401306 -3.15067267417908 -3.51110792160034 -3.86812567710876 -4.15109157562256 -4.3271541595459 -4.5154914855957 -4.60164165496826 -4.65206098556519 -4.73651504516602 -4.7577805519104 -4.25016117095947 -0.876099824905396 9.30183792114258 15.3428049087524 16.7432613372803 14.4932403564453 10.509801864624 8.89543151855469 6.05819940567017 4.62551069259644 3.27853465080261 2.58311128616333 1.45282030105591 0.387950301170349 -0.0803062617778778 -0.765613257884979 0.0982221215963364 1.05594956874847 -0.270484805107117 -2.17415833473206 -3.11796069145203 -3.34838342666626 -3.56487989425659 1.40810704231262 5.20322179794312 5.55266332626343 5.42543077468872 4.71141052246094 3.6150963306427 6.42363548278809 9.7471809387207 9.63827610015869 8.47814750671387 7.06125545501709 6.49479007720947 6.27836275100708 5.51067018508911 5.75673294067383 5.32629728317261 4.75163555145264 4.00730657577515 3.57834672927856 3.09042954444885 2.45082974433899 1.637371301651 0.623283505439758 0.756662726402283 3.39101243019104 5.63827323913574
0.84866601228714 0.526564419269562 0.455190986394882 1.18722605705261 2.5985996723175 3.02375268936157 2.37572169303894 1.73884868621826 1.48925399780273 1.37495768070221 1.24868619441986 1.06189668178558 0.929631292819977 0.949855923652649 0.787024736404419 0.667471408843994 0.537490963935852 0.456822633743286 0.382695406675339 0.534828901290894 0.468995690345764 0.25732433795929 0.131270840764046 -0.159900709986687 -0.216920524835587 -0.284395605325699 -0.291848450899124 -0.281129837036133 -0.27095103263855 -0.281212151050568 -0.271248281002045 -0.281531035900116 -0.3190538585186 -0.36644235253334 -0.420984774827957 -0.500094890594482 -0.553627252578735 -0.595979511737823 -0.711219966411591 -0.844581007957458 -0.992303252220154 -1.25494956970215 -1.46595048904419 -1.59739923477173 -1.63266026973724 -1.32277143001556 -1.36990463733673 -1.23310077190399 0.339531689882278 0.990547955036163 -0.168562889099121 0.0572759136557579 -0.718979716300964 -0.876802206039429 -1.30368638038635 -1.34986793994904 -1.34457862377167 -1.18175959587097 -1.09179127216339 -1.27674806118011 -1.28108072280884 -1.33743751049042 -1.34223568439484 -1.36160552501678 -1.37704873085022 -1.15442264080048 -0.644767940044403 3.58518052101135 4.90636539459229 4.80595397949219 4.85605049133301 4.65811061859131 5.79245471954346 8.13480377197266 8.73730850219727 10.0055131912231 13.9979963302612 15.8446407318115 15.9956541061401 15.1108875274658 15.8297567367554 14.2389335632324 13.470645904541 11.8531284332275 10.5470266342163 9.96017551422119 9.04623126983643 7.53457832336426 6.3025975227356 5.64708805084229 4.90960359573364 4.89882898330688 4.35068321228027 4.00762128829956 3.36877942085266 2.93402528762817 2.49786114692688 2.03244853019714 1.6647207736969 1.53718221187592 1.34957134723663 1.14834547042847 0.905162334442139 0.528392970561981 0.121351316571236 -0.36363610625267 -0.920285642147064 -1.35373151302338 -1.79402768611908 -2.22003746032715 -2.83639001846313 -3.2488968372345 -3.65296125411987 -3.99130654335022 -4.14572954177856 -4.27316427230835 -4.43246793746948 -4.66792869567871 -4.78934192657471 -4.84715366363525 -4.87496614456177 -3.51348447799683 -1.06312084197998 1.95303916931152 10.4452962875366 16.1107654571533 16.1844253540039 15.0979232788086 11.4000148773193 9.13321208953857 5.67615699768066 3.86637473106384 2.82607293128967 2.0823495388031 1.57575654983521 0.849839508533478 0.917212963104248 0.164947465062141 0.542558014392853 1.63301062583923 0.329167276620865 -0.425326526165009 -2.16652679443359 -3.32781410217285 -3.46171474456787 2.9903461933136 4.7177906036377 6.69300889968872 5.802330493927 5.54675674438477 6.20146560668945 9.51262474060059 10.699875831604 8.63361930847168 5.96161699295044 5.48507404327393 6.08428525924683 5.66879272460938 5.66814374923706 5.58292627334595 5.84212684631348 4.63694953918457 3.64916825294495 3.40677762031555 3.06681728363037 2.80935955047607 2.10167288780212 1.25475287437439 2.44904494285583 7.06660175323486 8.42372703552246
0.521284580230713 0.44946014881134 0.459371477365494 0.437785029411316 0.436374753713608 0.830407321453094 1.2642525434494 1.28018712997437 1.35066449642181 1.1389878988266 1.04894065856934 0.846311807632446 0.740620851516724 0.647249221801758 0.56415581703186 0.616704344749451 0.532121658325195 0.426551997661591 0.331412613391876 0.281832844018936 0.243197157979012 0.378917336463928 0.215971603989601 0.10925567895174 0.00935177784413099 -0.235767990350723 -0.301377326250076 -0.371964335441589 -0.327980309724808 -0.328409612178802 -0.312658607959747 -0.31529438495636 -0.3464315533638 -0.425977349281311 -0.51338130235672 -0.583571553230286 -0.645442545413971 -0.710578560829163 -0.762502133846283 -0.840515494346619 -1.07225918769836 -1.30082058906555 -1.46010887622833 -1.60405659675598 -1.68013501167297 -1.75886952877045 -1.75841689109802 -1.32188606262207 -0.515832960605621 -0.224600166082382 0.127205640077591 0.357017695903778 -0.343469023704529 -0.222724691033363 -1.06058275699615 -1.31467223167419 -1.39545202255249 -1.37067365646362 -0.937364935874939 -1.21342313289642 -1.32268905639648 -1.43960654735565 -1.45285320281982 -1.52181255817413 -1.52019274234772 -1.47385907173157 1.09620201587677 4.8056321144104 6.32777118682861 6.16459655761719 6.29014682769775 5.27490949630737 5.63948631286621 6.13627290725708 6.87933588027954 9.18341159820557 10.8810434341431 10.6981601715088 10.7834749221802 11.7705774307251 12.0478019714355 12.0269012451172 11.4572238922119 10.3257493972778 9.717604637146 8.48936939239502 7.25030946731567 6.24771022796631 5.017418384552 3.69292449951172 2.88775300979614 3.48131346702576 4.07480669021606 4.04503679275513 3.80151677131653 3.53567385673523 2.93701410293579 2.45121908187866 1.90883708000183 1.73383295536041 1.49575746059418 1.30059540271759 0.969894349575043 0.470160305500031 -0.0823610574007034 -0.558030128479004 -1.12616980075836 -1.61285281181335 -2.11765575408936 -2.63701462745667 -3.23907828330994 -3.66094899177551 -3.95382809638977 -4.22520303726196 -4.30246925354004 -4.38832902908325 -4.55713272094727 -4.82859563827515 -4.96624422073364 -5.0074987411499 -4.09070634841919 -1.33800113201141 1.01169729232788 1.79721057415009 5.85831737518311 10.6034049987793 10.9913454055786 14.7873945236206 11.7471914291382 9.76615238189697 6.04595375061035 3.4829375743866 2.27872776985168 1.91006147861481 1.81927824020386 1.39700365066528 1.05385398864746 0.637405872344971 0.829967141151428 1.80131185054779 0.673876702785492 -0.0460443273186684 -1.23231410980225 -2.01824498176575 -3.07850432395935 1.26306402683258 6.18244791030884 8.67939758300781 7.1973090171814 7.72800636291504 8.74891567230225 10.2420539855957 9.50221347808838 8.44149494171143 7.00065803527832 5.82983779907227 6.47971534729004 6.27354192733765 7.07965326309204 8.90648365020752 7.33190250396729 4.9924430847168 4.04206943511963 3.40768575668335 3.29060626029968 3.09831690788269 2.54896879196167 2.03928351402283 3.48263192176819 8.80001258850098 10.5579738616943
0.555497288703918 0.476999670267105 0.449059665203094 0.399018168449402 0.432488590478897 0.179340735077858 0.239830374717712 0.778861582279205 1.17699682712555 1.030606508255 0.834781527519226 0.620846688747406 0.539103746414185 0.410470962524414 0.44679981470108 0.400682657957077 0.328750133514404 0.37392184138298 0.308251827955246 0.235397085547447 0.176146909594536 0.168682038784027 0.29304301738739 0.227714195847511 0.070406898856163 -0.0138434525579214 -0.106131166219711 -0.335737884044647 -0.405387967824936 -0.390282213687897 -0.368981778621674 -0.360505759716034 -0.398476809263229 -0.473588287830353 -0.57405698299408 -0.673385620117188 -0.750281810760498 -0.794992387294769 -0.867405891418457 -0.975638389587402 -1.16118192672729 -1.35417294502258 -1.46659898757935 -1.59987699985504 -1.72455620765686 -1.87646162509918 -1.95320737361908 -1.90265870094299 -0.164310082793236 1.01343178749084 1.36343574523926 0.821368157863617 0.0682719647884369 0.176860123872757 -0.610240161418915 -1.12901985645294 -1.21048784255981 -1.39310300350189 -0.831746518611908 -0.961269378662109 -1.41701865196228 -1.48498606681824 -1.47489440441132 -1.61247837543488 -1.63470423221588 -1.55408680438995 4.27717399597168 6.27849149703979 7.62294960021973 7.62044715881348 6.90341806411743 5.83087825775146 5.1261420249939 4.59931087493896 5.45464992523193 6.42910099029541 6.37951612472534 6.84389972686768 7.73457813262939 8.41196250915527 9.2400598526001 8.9615364074707 8.494873046875 8.05985832214355 7.92587757110596 6.74173164367676 5.41538763046265 4.19946670532227 3.44192099571228 1.82130706310272 0.989906668663025 1.56949925422668 2.75532531738281 2.92349290847778 3.23718357086182 3.2960000038147 2.75005960464478 2.4267566204071 2.41325163841248 2.0304274559021 1.64291501045227 1.38323044776917 1.02698457241058 0.454452872276306 -0.293630957603455 -0.953284740447998 -1.62718272209167 -2.2677526473999 -2.63611578941345 -3.02855253219604 -3.34886884689331 -3.75345253944397 -4.05335330963135 -4.24583530426025 -3.37471890449524 -4.46126699447632 -4.62959766387939 -4.87130117416382 -5.0361385345459 -3.05692577362061 0.795550584793091 2.83469271659851 3.11801218986511 3.10173678398132 7.4966254234314 10.3325605392456 11.7730197906494 15.8891792297363 13.2347984313965 10.1365404129028 6.35456085205078 3.96503329277039 2.43118286132812 1.64452254772186 1.58842778205872 1.43650650978088 1.38413655757904 1.04303193092346 0.954930484294891 1.84519183635712 0.450219690799713 0.382650434970856 -0.673359572887421 -1.3617160320282 -1.69105350971222 2.16789388656616 6.11247587203979 6.87405252456665 6.34331035614014 6.92345905303955 7.06590032577515 7.93343830108643 8.34103012084961 8.39784336090088 8.58749198913574 9.60482597351074 9.88572120666504 9.14311790466309 8.61803150177002 7.26516914367676 6.08493041992188 5.60621690750122 4.95020008087158 6.679612159729 7.56262397766113 4.19869804382324 3.01138973236084 2.56584429740906 2.21268630027771 7.30512380599976 12.9736652374268
0.569643557071686 0.529798865318298 0.496343821287155 0.426515579223633 0.392536818981171 0.179702445864677 1.24617791175842 1.1265789270401 0.954834580421448 0.758378982543945 0.634458839893341 0.40991073846817 0.336471527814865 0.20205320417881 0.188133284449577 0.181718364357948 0.166304856538773 0.122372947633266 0.0761075243353844 0.183399200439453 0.155096739530563 0.108464322984219 0.059953860938549 0.0224686991423368 0.123080059885979 0.0656870454549789 -0.0538499392569065 -0.107028208673 -0.363144218921661 -0.396662980318069 -0.436767756938934 -0.430009573698044 -0.454621732234955 -0.516072750091553 -0.624680459499359 -0.722351431846619 -0.790337979793549 -0.871057093143463 -0.91941773891449 -1.01121294498444 -1.21218466758728 -1.40868747234344 -1.32996892929077 -1.18656098842621 -1.77663004398346 -1.8969259262085 -2.07212233543396 -0.348273098468781 2.43483281135559 3.44727802276611 3.36325764656067 1.38910973072052 0.92835944890976 0.254638105630875 -0.30041429400444 -0.723294079303741 -0.701687276363373 -1.18494367599487 -1.00781989097595 -1.19292390346527 -1.4257138967514 -1.50728535652161 -1.50021231174469 -1.62221848964691 -1.68872559070587 1.37068951129913 8.04299163818359 8.48445987701416 8.04393672943115 8.7752628326416 7.45221138000488 6.3510947227478 5.62189340591431 5.06168699264526 6.38604164123535 6.60444784164429 6.17068529129028 7.03604316711426 7.9826283454895 6.29403495788574 5.82568264007568 5.63982391357422 5.66290760040283 5.68669366836548 5.07206964492798 4.13431644439697 3.62348031997681 2.4378662109375 1.89028370380402 0.732343912124634 -0.325964510440826 -0.0485039837658405 0.52991133928299 0.632825553417206 2.00969672203064 2.5543007850647 2.56239795684814 2.55960392951965 2.68632340431213 2.34964561462402 2.01007390022278 1.58148550987244 1.07399642467499 0.237219199538231 -0.692037343978882 -1.66142523288727 -2.1321907043457 -2.53991675376892 -2.80569672584534 -3.12427759170532 -3.4891471862793 -3.80039620399475 -3.64414739608765 -2.17001581192017 -1.44859313964844 -3.60000705718994 -4.4853663444519 -4.78246593475342 -2.61690473556519 1.2519611120224 4.33257532119751 5.19783782958984 4.56060361862183 5.21820449829102 9.69759654998779 11.9212875366211 14.4784364700317 17.1615371704102 15.7844190597534 9.77313423156738 6.29969120025635 4.3305492401123 3.35829615592957 2.38885641098022 1.86940503120422 1.39105224609375 1.41849172115326 1.28793406486511 1.23059058189392 1.53625535964966 1.15939915180206 0.938757419586182 -0.0200431644916534 -0.375923126935959 -0.92881166934967 0.106735654175282 2.04009222984314 3.40506267547607 5.29801750183105 6.04291391372681 6.89434432983398 9.33777904510498 9.07822132110596 8.04785537719727 8.30282878875732 7.87638998031616 7.18504810333252 8.33017921447754 7.67934226989746 6.8095178604126 5.84870576858521 5.44213438034058 5.02668714523315 4.88728189468384 4.30927801132202 3.87967920303345 3.27133107185364 2.81823587417603 2.40901041030884 4.63009023666382 11.5692873001099
