NCOLS 173
NROWS 32
XLLCORNER 353920
YLLCORNER 6699984
CELLSIZE 16 
NODATA_value -3.4e+38 
0.580963850021362 0.608041763305664 0.683610618114471 0.898267447948456 1.03519785404205 1.11339735984802 1.21247732639313 1.34828341007233 1.58205986022949 1.78648698329926 2.95495843887329 2.90276217460632 2.18782043457031 2.25744485855103 2.31792664527893 2.52763438224792 2.85654306411743 3.5956289768219 2.6060631275177 1.78088986873627 0.871901988983154 0.626789331436157 0.613037645816803 0.519445776939392 0.545373737812042 0.514762997627258 0.439603209495544 0.476606339216232 0.572898924350739 0.488330096006393 0.462400108575821 0.582102417945862 0.620084941387177 0.644147515296936 0.738260388374329 0.880523979663849 0.871444582939148 0.822331011295319 0.909516036510468 1.0188547372818 1.07249462604523 1.29218780994415 1.34888780117035 1.4205094575882 1.71179485321045 1.81765067577362 2.30865859985352 2.73728728294373 3.25596523284912 2.69041562080383 3.68104338645935 2.37336134910583 2.14771914482117 2.41384863853455 1.78042852878571 1.771075963974 1.78110527992249 2.30653595924377 2.51152992248535 2.5601692199707 2.7978367805481 2.91597270965576 3.08416891098022 3.33650636672974 3.60026025772095 3.94231128692627 4.18017196655273 4.32717943191528 4.41166162490845 4.63430881500244 4.68281507492065 4.90159463882446 5.03474235534668 5.3535475730896 6.14404630661011 6.55835056304932 6.92729473114014 7.34920215606689 7.25744962692261 7.74765968322754 8.21848106384277 8.1349983215332 8.25635242462158 8.84372806549072 8.55716705322266 8.33728408813477 9.29133319854736 9.87376022338867 12.0071153640747 9.99002456665039 4.78011083602905 4.9636025428772 3.87177181243896 3.29952168464661 3.65377235412598 4.08831882476807 4.09237432479858 4.50053834915161 5.91767358779907 6.77766799926758 9.92547416687012 15.2566938400269 6.75899076461792 6.98641061782837 13.4466543197632 4.43019914627075 4.67972040176392 -0.592921197414398 -2.18763208389282 -2.01163697242737 -1.82067215442657 -1.72237145900726 -1.30897963047028 -0.934594571590424 0.270647436380386 0.791138052940369 2.94490385055542 2.47928547859192 -0.365060597658157 0.215406090021133 3.83863186836243 -1.40553486347198 -1.5033928155899 -1.3655754327774 -1.25474584102631 -1.17197382450104 1.63366627693176 3.75147986412048 -1.08144783973694 -0.639028310775757 -0.3918476998806 -0.384710907936096 1.15865194797516 1.47317934036255 5.24685192108154 3.03214716911316 1.09684896469116 -1.19431483745575 -1.08017790317535 -0.670830547809601 -0.662799298763275 -0.639208078384399 -0.422302931547165 -0.341294199228287 -0.225292667746544 -0.0226480457931757 0.0459410063922405 0.258885473012924 0.512265801429749 0.609866380691528 1.02217233181 1.42759847640991 2.02703285217285 2.56432747840881 2.93878507614136 3.25742888450623 3.52955031394958 3.68428301811218 3.78909111022949 3.89080858230591 3.97468090057373 4.06845426559448 4.18781805038452 4.04441547393799 4.15585088729858 4.22407913208008 4.09980201721191 4.12836647033691 4.40737581253052 4.94310855865479 5.22832727432251 5.51226186752319 5.87446689605713
0.620260834693909 0.664021909236908 0.759254574775696 0.901481986045837 1.02069139480591 1.14190292358398 1.23013925552368 1.34935688972473 1.5270379781723 1.70722782611847 2.13484311103821 3.15727925300598 2.31120181083679 2.27698707580566 2.26601696014404 2.36480975151062 2.67128038406372 2.98770976066589 3.19042658805847 2.59198093414307 0.979913651943207 0.745435357093811 0.659988880157471 0.646152853965759 0.665954530239105 0.678296744823456 0.613420009613037 0.697792828083038 0.705648601055145 0.628507971763611 0.686248421669006 0.806302130222321 0.734494626522064 0.735136330127716 0.748033940792084 0.80887770652771 1.0716872215271 1.00369155406952 1.05560624599457 1.11869978904724 1.13368272781372 1.25932681560516 1.37096261978149 1.39803314208984 1.52368748188019 1.65739095211029 2.12464785575867 2.45299243927002 2.7323477268219 3.48120713233948 4.11575365066528 5.35375547409058 3.03158855438232 2.27539825439453 2.26246500015259 2.24536871910095 2.34948301315308 2.23319458961487 1.92968201637268 2.20625948905945 2.4658579826355 2.65195274353027 2.68183255195618 2.96141004562378 3.17361068725586 3.48661303520203 3.85358715057373 4.18995237350464 4.96137714385986 4.40573978424072 4.44384479522705 4.5443811416626 4.90649318695068 5.29473257064819 6.00183773040771 6.73636198043823 7.13337230682373 7.5670280456543 7.99608469009399 8.61068534851074 9.32486820220947 9.57541561126709 10.6987390518188 11.2505502700806 11.6973571777344 12.4726114273071 13.3414249420166 14.0541343688965 15.3343162536621 11.8528785705566 7.82931041717529 4.90717172622681 3.02236223220825 3.01097297668457 3.27410531044006 3.91225218772888 4.40644645690918 4.78395700454712 4.78351402282715 4.12400054931641 5.38095664978027 9.99350833892822 6.87115240097046 2.90778994560242 2.80411982536316 4.85675621032715 6.58412647247314 5.85810852050781 -0.526702046394348 -1.8357400894165 -1.69659578800201 -1.60897433757782 -1.55805063247681 -1.31204771995544 -0.666153967380524 0.682631433010101 1.10801911354065 2.19805073738098 1.11279845237732 -1.52594792842865 3.5221471786499 -1.43393099308014 -1.45976853370667 -1.33208167552948 -1.25496411323547 -1.16342961788177 -1.05884480476379 -0.578060269355774 -0.819424033164978 -0.249597772955894 -0.0466612093150616 0.00497639924287796 1.78711295127869 2.08235859870911 7.8479151725769 2.59405326843262 -0.636816799640656 -0.29904767870903 0.00362000032328069 0.930039823055267 -0.451725691556931 -0.914608895778656 -0.726447284221649 -0.52088063955307 -0.270047754049301 0.176947832107544 0.447118997573853 0.666132926940918 0.867957413196564 1.11562645435333 1.34749686717987 1.62703597545624 2.01933598518372 2.48676609992981 2.88862586021423 3.17380785942078 3.4893741607666 3.73406195640564 3.82532596588135 3.91232442855835 4.04923248291016 4.13396596908569 4.24173212051392 4.33980560302734 4.46021938323975 4.59688901901245 4.51382827758789 4.74282693862915 4.89399528503418 4.79484748840332 4.98077297210693 5.25493717193604 5.89983987808228
0.735065639019012 0.806684911251068 0.87153822183609 0.921538949012756 1.03324365615845 1.09452366828918 1.21890914440155 1.34416878223419 1.46675765514374 1.64309394359589 1.92479860782623 3.17168784141541 2.11309576034546 2.48971605300903 2.3560426235199 2.29024839401245 2.61600279808044 2.70234346389771 3.47316646575928 3.27178812026978 1.28779280185699 0.854845702648163 0.750800013542175 0.758131980895996 0.778591752052307 0.713213503360748 0.727014303207397 0.796423852443695 0.852869987487793 0.839357912540436 0.938255608081818 0.886558890342712 0.835409164428711 0.88127475976944 0.935631930828094 0.855646789073944 0.92816686630249 0.93306976556778 0.97937935590744 1.07400190830231 1.18697142601013 1.32691562175751 1.46477150917053 1.55675172805786 1.75493359565735 2.10563659667969 2.01752328872681 2.18603348731995 2.05071043968201 2.60263872146606 3.19477295875549 5.82761001586914 5.26035737991333 1.66979050636292 2.19279050827026 2.59628772735596 2.88542723655701 2.89243769645691 3.24190831184387 3.85490870475769 3.49658012390137 3.47050714492798 4.21037435531616 2.52879524230957 2.73034644126892 2.93817281723022 3.46407079696655 4.49835872650146 5.3873462677002 4.62471914291382 4.02556276321411 4.29305696487427 4.67531681060791 5.23288345336914 5.87335729598999 6.36072587966919 6.86255025863647 7.2595739364624 8.24158573150635 8.86502742767334 9.59439563751221 10.5497884750366 11.7386808395386 12.7817115783691 14.1595973968506 16.3776016235352 19.0542125701904 25.6834449768066 21.5244636535645 17.4526443481445 11.7735757827759 5.10022401809692 2.51978588104248 2.74847912788391 2.85290551185608 3.14013266563416 4.16959810256958 4.82446718215942 4.90992498397827 4.06563568115234 3.37255859375 2.89886927604675 3.44904851913452 3.56625127792358 4.55559206008911 5.53901100158691 5.3061785697937 4.88404273986816 0.451957911252975 -1.6413334608078 -1.61136960983276 -1.40787792205811 -1.52902841567993 -1.45819020271301 -1.3872549533844 0.133270412683487 -0.350630223751068 0.0706514418125153 1.53991878032684 -1.36549711227417 -0.651790499687195 0.87343156337738 -0.348963707685471 -1.25242376327515 -1.19705009460449 -1.1368054151535 -0.945230484008789 -0.853279948234558 -0.587132573127747 -0.216348946094513 0.0820959657430649 0.229393497109413 1.20601618289948 5.43922853469849 4.79923295974731 3.7739360332489 2.56842374801636 0.679995656013489 1.12231123447418 1.56914746761322 1.97423148155212 1.55294120311737 -0.962573409080505 -0.837088167667389 -0.63428395986557 -0.158270195126534 0.267568081617355 0.548435926437378 0.747527360916138 1.43320405483246 1.75686371326447 2.08965706825256 2.30255126953125 2.61405897140503 2.94267463684082 3.12533855438232 3.39309358596802 3.63375735282898 3.69753241539001 3.8366072177887 4.05280303955078 4.1347508430481 4.23290109634399 4.38544416427612 4.49369668960571 4.61558961868286 4.76666355133057 4.98461198806763 5.23105430603027 5.22985506057739 5.50149774551392 5.64739990234375 5.53383684158325
0.955675065517426 1.00896036624908 0.995488703250885 1.00873327255249 1.06507623195648 1.07484996318817 1.260213971138 1.36333048343658 1.4344916343689 1.59191882610321 1.8227447271347 2.89941024780273 2.06122803688049 2.24498534202576 2.51296257972717 2.53318166732788 2.4777147769928 2.54506611824036 3.35087633132935 3.56559824943542 1.58399534225464 0.964521884918213 0.869859278202057 0.871216535568237 0.890423655509949 0.798849821090698 0.837679505348206 0.901378512382507 0.867701172828674 0.926496863365173 1.0230565071106 1.06408834457397 1.04623365402222 1.1646271944046 1.15008616447449 1.0207234621048 1.03110468387604 1.0458357334137 1.10394906997681 1.13740932941437 1.12685835361481 1.21876776218414 1.3834433555603 1.55892813205719 1.70830321311951 1.81646013259888 1.93094170093536 1.94865274429321 2.16496443748474 2.43799161911011 2.7459614276886 2.7641487121582 4.92515850067139 1.4375456571579 2.07096695899963 2.28987097740173 2.50869369506836 3.24210953712463 3.70913887023926 4.32546186447144 4.938307762146 6.44175338745117 8.43803215026855 4.96695518493652 1.94448959827423 2.06182742118835 2.82048416137695 4.10903644561768 5.37772083282471 4.31072664260864 3.5685133934021 3.75911808013916 4.26359891891479 4.92326831817627 5.65698719024658 5.92919015884399 6.64043951034546 7.02460384368896 7.78366184234619 8.39393329620361 9.29590320587158 10.7302379608154 11.8295116424561 13.7437419891357 15.6802272796631 18.1063117980957 22.9631328582764 29.1501235961914 23.393367767334 14.2556600570679 11.2399730682373 7.59171485900879 2.55664920806885 3.38318967819214 3.70355606079102 2.83680772781372 3.38402366638184 3.78679633140564 3.91875052452087 3.7801787853241 3.26243305206299 3.55358672142029 4.07833290100098 4.64619398117065 3.97357153892517 4.72068405151367 5.38133573532104 4.93825674057007 3.07551836967468 0.248065620660782 0.26927649974823 0.875073730945587 -1.50615763664246 -1.46060574054718 -1.36576771736145 -1.25016129016876 -0.431277304887772 -1.07546448707581 -0.558937609195709 -0.962046504020691 -0.570349097251892 0.0946799963712692 2.5340678691864 -1.03582978248596 -1.03472280502319 -0.955758094787598 -0.856743335723877 -0.721502304077148 -0.611116647720337 -0.258091598749161 0.109350420534611 0.571713507175446 1.20735013484955 4.62827444076538 5.98723030090332 2.56252074241638 4.67940807342529 1.92323231697083 2.77095913887024 3.58712983131409 4.50141763687134 7.14441061019897 -1.14499282836914 -1.01184093952179 -0.693910479545593 -0.485649198293686 -0.187807008624077 0.0192645266652107 0.370415091514587 0.960330188274384 1.41877841949463 1.77477359771729 2.85413098335266 3.17827939987183 3.50070381164551 3.7761971950531 4.11580085754395 4.41853809356689 3.77556133270264 3.65833306312561 3.89516234397888 3.97501349449158 4.1220064163208 4.35092258453369 4.42439270019531 4.5108699798584 4.6922025680542 4.86965274810791 5.09805202484131 5.34746170043945 5.66314792633057 5.98605585098267 6.04022312164307
1.17122161388397 1.86649465560913 1.09431791305542 1.09774816036224 1.1799533367157 1.22745358943939 1.3319433927536 1.4113746881485 1.51613545417786 1.51958537101746 1.76774632930756 2.5199568271637 1.96777093410492 2.12000393867493 2.46023726463318 2.49114751815796 2.25543308258057 2.35578346252441 2.98273730278015 3.52318143844604 2.13575291633606 0.934833347797394 0.982724487781525 0.981686055660248 0.991171538829803 0.910510420799255 0.946334779262543 1.0028885602951 0.944082736968994 1.01696455478668 1.09495091438293 1.05716335773468 1.13148367404938 1.21136963367462 1.33139979839325 1.28192710876465 1.3179829120636 1.26535379886627 1.30314707756042 1.29433369636536 1.25569939613342 1.35563325881958 1.44592249393463 1.48413407802582 1.8082115650177 1.9827333688736 2.30916428565979 2.57663464546204 2.37233066558838 2.57031226158142 2.70949935913086 2.35136342048645 1.7153947353363 1.11208772659302 1.6018625497818 1.77674770355225 2.13665318489075 2.95656037330627 3.45711517333984 3.97398805618286 5.52680444717407 7.24193096160889 9.44381237030029 9.58343315124512 0.758143126964569 0.969309329986572 1.74625837802887 2.53774976730347 4.77796268463135 4.38827896118164 3.06810665130615 3.17652750015259 3.81238293647766 4.38192749023438 5.1090784072876 5.38929557800293 6.20990133285522 6.56845760345459 7.13102197647095 8.12718963623047 8.73090744018555 10.1147165298462 11.1615123748779 13.3674688339233 15.3181352615356 18.153003692627 23.1082782745361 30.2553844451904 34.059757232666 14.2516136169434 7.76836681365967 4.1953558921814 1.39898836612701 0.181166291236877 1.73008620738983 1.68928647041321 2.14431834220886 2.88744926452637 3.231858253479 3.36723232269287 3.13667917251587 3.44258642196655 4.18954515457153 4.75558233261108 6.17872285842896 7.6942777633667 9.64385795593262 8.02179431915283 2.8513514995575 0.236403539776802 0.334457576274872 2.01426672935486 1.12858378887177 -1.49239063262939 -1.373943567276 -1.16789042949677 -0.954491019248962 -0.854944109916687 -0.661547183990479 -0.250741541385651 0.226565226912498 0.346177220344543 0.589766025543213 0.993187606334686 -0.501901507377625 -0.643842697143555 -0.72336208820343 -0.619909882545471 -0.473449259996414 -0.231496706604958 0.016066761687398 0.526272714138031 0.846810400485992 1.99379420280457 4.12346410751343 6.41935062408447 4.53915357589722 1.83495485782623 3.37116837501526 3.98814797401428 6.76873016357422 9.37942314147949 -0.363566100597382 -1.1656790971756 -0.837863564491272 -0.571439385414124 -0.288396239280701 -0.0879056602716446 0.123868986964226 0.390073329210281 0.80061799287796 1.11020648479462 2.16539883613586 2.59928393363953 2.80891728401184 4.11071300506592 4.36351537704468 4.66301345825195 5.15310335159302 5.87831830978394 6.78462791442871 5.7812876701355 6.90395402908325 7.14522266387939 5.08402919769287 4.2329306602478 4.49560356140137 4.64164781570435 5.86934995651245 5.06250238418579 5.32290697097778 5.79203271865845 6.19572782516479
1.25482821464539 1.34291076660156 1.25079572200775 1.27514910697937 1.29510223865509 1.36012315750122 1.41706275939941 1.46795308589935 1.5351665019989 1.63699316978455 2.5002281665802 1.76376330852509 1.9529482126236 2.15034985542297 2.35300159454346 2.56269788742065 2.3111743927002 2.06299996376038 2.34374165534973 3.02987217903137 2.76199507713318 1.51439201831818 1.18851459026337 1.02396857738495 0.907447934150696 1.01760315895081 1.04388344287872 1.09526801109314 1.03715896606445 1.09674072265625 1.17144381999969 1.11549830436707 1.17937684059143 1.24142467975616 1.20506465435028 1.38836920261383 1.47285711765289 1.46510875225067 1.37037181854248 1.40760624408722 1.33143734931946 1.45046675205231 1.47343647480011 1.53927326202393 1.79787981510162 2.18604159355164 2.5596182346344 2.67140769958496 2.38424730300903 2.16441011428833 2.2164933681488 1.94234251976013 0.98357355594635 0.808572292327881 1.00400495529175 1.29992806911469 1.45954608917236 2.31155490875244 2.72229480743408 3.75219488143921 5.06481790542603 6.60294008255005 11.4787244796753 7.37334585189819 0.973754584789276 0.325239479541779 0.491547733545303 1.06521081924438 2.71857261657715 4.42423820495605 2.19851422309875 2.26879978179932 3.21912980079651 3.81498885154724 4.39111614227295 4.81156539916992 5.71775150299072 6.05230331420898 6.55639410018921 7.58747863769531 8.15698719024658 9.27504730224609 10.593412399292 12.0417404174805 14.4916734695435 16.5449123382568 22.6339530944824 28.1359519958496 39.36767578125 22.5192165374756 8.86529636383057 1.39113676548004 0.0351029224693775 -0.736771702766418 -0.130908519029617 0.414319485425949 0.827910363674164 1.76261913776398 2.46302390098572 2.95872735977173 3.4429178237915 3.88880014419556 4.34352016448975 4.47359991073608 5.36120414733887 7.25431823730469 8.85052585601807 15.8683195114136 0.721166431903839 0.432565420866013 -0.428982496261597 0.739695727825165 -0.207172393798828 -1.32677698135376 -1.19417870044708 -0.975488781929016 -0.618215262889862 -0.333925843238831 -0.0393443629145622 0.378484785556793 0.763507783412933 1.00342547893524 0.95524936914444 0.599910497665405 0.631830811500549 0.197741031646729 -0.151463478803635 -0.117082118988037 -0.229043737053871 -0.191188052296638 0.0772379264235497 0.374809980392456 0.762971699237823 1.5107809305191 3.29463505744934 5.7903881072998 4.79851388931274 1.64354825019836 2.65902519226074 3.23484683036804 9.09379768371582 7.47864103317261 0.758079409599304 -1.10240018367767 -0.898340165615082 -0.646565139293671 -0.344704836606979 -0.165180861949921 0.0549389347434044 0.294852912425995 0.536984264850616 0.828923106193542 1.28857743740082 1.70750284194946 2.00534343719482 3.00501942634583 3.25191187858582 3.54184436798096 5.30956649780273 6.03501510620117 7.59892797470093 9.67491245269775 12.9950885772705 13.6391630172729 6.47096920013428 3.74670076370239 4.05876588821411 4.19548988342285 4.4260458946228 4.71738862991333 4.75007915496826 5.01893520355225 5.87199735641479
1.6605441570282 1.86482977867126 1.33963620662689 1.38109934329987 1.41506385803223 1.50454699993134 1.57330965995789 1.59780788421631 1.66462707519531 1.88812732696533 2.284743309021 2.23547863960266 1.82808995246887 2.05295252799988 2.30483269691467 2.53619456291199 2.37659382820129 2.03074789047241 1.9278210401535 2.13406133651733 2.64575862884521 2.23365092277527 1.86682212352753 1.35590815544128 0.792532980442047 0.868670761585236 0.887257874011993 0.985427260398865 1.11209297180176 1.1657383441925 1.24303686618805 1.19734668731689 1.3039265871048 1.3736172914505 1.31526660919189 1.49605071544647 1.54580235481262 1.42985439300537 1.50118374824524 1.5843448638916 1.56942534446716 1.58059918880463 1.5976243019104 1.56894564628601 1.70852565765381 2.00816941261292 2.20403099060059 2.32042336463928 2.09463047981262 1.50767278671265 1.26829993724823 1.1543550491333 0.770916640758514 0.64810836315155 0.832357704639435 1.06153750419617 1.16839468479156 1.50151324272156 1.91684436798096 2.53945899009705 4.00731134414673 5.01951551437378 10.0564956665039 6.05833339691162 2.23153686523438 0.0616948008537292 0.115391969680786 0.455804497003555 0.810834169387817 2.44053411483765 1.16925716400146 1.33751046657562 2.28332757949829 2.87818646430969 3.26203203201294 3.85662746429443 4.98811912536621 5.40275096893311 5.86720848083496 6.99567222595215 7.5272388458252 8.53213977813721 9.90155220031738 10.9284105300903 13.3201637268066 15.2476606369019 20.6332569122314 26.0112628936768 42.2194595336914 28.5372886657715 14.5879955291748 2.89440989494324 0.444013208150864 -0.22614574432373 -1.18882524967194 -0.706918001174927 -0.0631950572133064 0.691173195838928 1.34861636161804 2.03326988220215 2.99881505966187 3.61359333992004 4.17692613601685 5.0759801864624 5.88902616500854 6.87100601196289 7.57402086257935 15.0458555221558 8.3080415725708 0.236909821629524 -1.3232274055481 -1.25416672229767 -1.10674428939819 -0.915269732475281 -0.665651261806488 -0.446264266967773 -0.0915722921490669 0.255805373191833 0.606691658496857 0.993447721004486 1.21751964092255 1.49840545654297 1.63803935050964 1.31363797187805 1.35595810413361 1.27435123920441 0.907432615756989 0.969491183757782 0.601670265197754 0.37739560008049 0.482253670692444 0.377952456474304 1.21296048164368 1.60346341133118 3.28242182731628 3.8430380821228 3.0577290058136 2.21563291549683 2.08143091201782 2.30569195747375 6.30207204818726 7.0848503112793 2.63817977905273 -0.801405310630798 -0.787862420082092 -0.688036203384399 -0.479986667633057 -0.245809003710747 -0.0281319916248322 0.271490931510925 0.44913387298584 0.882079064846039 1.15345513820648 1.75769913196564 2.23061037063599 2.96793246269226 3.80702638626099 1.78499782085419 3.44673347473145 4.14764976501465 5.81262969970703 9.04506683349609 11.3333330154419 22.2961120605469 5.28865242004395 2.75536680221558 3.26418018341064 3.51969575881958 3.90708327293396 4.24189043045044 4.34570360183716 4.57233381271362 5.17121553421021
2.09937691688538 1.88186085224152 1.88369154930115 1.8870370388031 1.70455729961395 1.64711797237396 1.73001313209534 1.78982126712799 1.84616243839264 1.8510502576828 1.86555814743042 1.95516431331635 2.16042995452881 2.24448084831238 2.05572199821472 2.46228265762329 2.32599902153015 2.09433650970459 1.86811852455139 1.85801672935486 2.01625871658325 2.45201516151428 2.15663766860962 1.591188788414 0.854680120944977 0.709385275840759 0.728192389011383 0.847932636737823 0.934305131435394 0.965653657913208 1.11379539966583 1.26349294185638 1.35910069942474 1.49769234657288 1.47403192520142 1.5544136762619 1.7593766450882 1.49726319313049 1.57448506355286 1.67123961448669 1.55652844905853 1.60589146614075 1.65240848064423 1.61501717567444 1.58251595497131 1.78782391548157 2.00333690643311 2.16516041755676 2.00328803062439 1.1322854757309 1.15843272209167 0.923889636993408 0.646636605262756 0.680602550506592 0.715868949890137 0.993951499462128 1.12885570526123 1.28912556171417 1.52778136730194 1.70037508010864 2.39615082740784 3.13334822654724 7.22082901000977 6.36902952194214 1.10624384880066 0.372308373451233 0.0751601606607437 0.199143469333649 0.427557855844498 0.50325483083725 0.691640913486481 0.965213716030121 1.09224450588226 1.74599993228912 2.12729358673096 2.39348864555359 3.70534420013428 4.20654916763306 4.78928661346436 6.12554311752319 6.6489953994751 7.6518816947937 9.1314868927002 10.0770893096924 12.2867774963379 14.1804370880127 17.97438621521 22.8774795532227 36.7912559509277 33.2101516723633 17.9101276397705 8.50768375396729 2.3097620010376 0.769115090370178 -2.0935914516449 -1.6632786989212 -1.02082622051239 -0.18503126502037 0.610987722873688 1.09711217880249 2.34394097328186 2.06260633468628 2.72131276130676 4.38135766983032 5.63813161849976 6.80434989929199 8.72166156768799 9.99041271209717 10.6360054016113 8.95105361938477 -1.18547058105469 -1.08571887016296 -0.715178251266479 -0.242388352751732 0.143716260790825 0.407813638448715 0.601883709430695 0.760230839252472 1.21218430995941 1.55892753601074 1.75405073165894 1.97775089740753 2.1193060874939 1.91350543498993 1.97025287151337 2.02029919624329 1.67353129386902 1.734703540802 1.67586767673492 1.37900328636169 1.55766785144806 1.14657938480377 1.24465918540955 1.62074625492096 3.44493794441223 3.53345608711243 1.81675398349762 0.49980702996254 1.31145405769348 1.76954901218414 2.97366404533386 4.75011157989502 4.9212121963501 3.98275828361511 -0.635217547416687 -0.621206045150757 -0.53944331407547 -0.308078169822693 -0.130321562290192 0.188384413719177 0.33987033367157 0.492964506149292 0.65032696723938 0.950313568115234 1.96853196620941 2.47884154319763 4.96119785308838 2.01018738746643 1.34538090229034 2.18449902534485 3.09648299217224 6.11147356033325 7.52681303024292 15.3038415908813 13.630220413208 2.07995462417603 2.33958268165588 2.69854187965393 3.12249255180359 3.59841060638428 3.80338072776794 4.20948362350464 4.62793302536011
2.24930644035339 2.26139163970947 2.39124202728271 2.46179342269897 2.22739815711975 2.32693099975586 2.37146282196045 2.44956064224243 2.14344882965088 1.97722494602203 2.03710651397705 2.02492380142212 2.20545387268066 2.44530916213989 3.25626564025879 2.12480473518372 2.23490595817566 2.19596385955811 2.02013349533081 1.71209192276001 1.73528683185577 1.89117968082428 2.23448300361633 1.96240627765656 1.20563733577728 0.604708433151245 0.615083396434784 0.627466857433319 0.755102157592773 0.772242724895477 0.931451976299286 1.04949712753296 1.11783993244171 1.31380474567413 1.51093721389771 1.60750222206116 1.88499927520752 1.56155335903168 1.6124769449234 1.70205354690552 1.62709975242615 1.71033656597137 1.78235626220703 1.61272025108337 1.6618515253067 1.71879410743713 1.77520644664764 1.72058999538422 1.57331550121307 1.60609233379364 1.43547260761261 1.18575119972229 1.27371108531952 1.40981304645538 1.10017716884613 0.944625318050385 1.38886499404907 1.4078381061554 1.42920303344727 1.59676659107208 1.95358085632324 2.69977879524231 4.60288143157959 4.63412380218506 3.20050382614136 -0.285759091377258 -0.1539546251297 0.993720173835754 0.126857340335846 0.268444150686264 0.397965490818024 0.735847175121307 0.914531171321869 1.24900114536285 1.60744321346283 1.73067009449005 1.94959139823914 2.6188018321991 2.98513746261597 4.56752729415894 5.16123962402344 6.23438358306885 8.01766395568848 8.85824108123779 11.04518699646 13.1248483657837 15.7572917938232 20.9844646453857 29.2096862792969 35.503303527832 20.9597644805908 13.5313129425049 4.51074028015137 4.27640056610107 -2.16148614883423 -2.03980755805969 -1.80364274978638 -0.766620337963104 0.050682544708252 0.447579562664032 2.31774806976318 1.16359162330627 1.28578007221222 3.2190957069397 4.70848417282104 6.17566919326782 8.691969871521 10.1160106658936 10.522439956665 14.5073137283325 -0.770651757717133 -0.621361434459686 -0.0497052296996117 0.373093336820602 0.763712227344513 0.993213415145874 1.18683242797852 1.28354728221893 1.60231161117554 1.90534400939941 2.12629699707031 2.31678032875061 2.36053109169006 2.3807520866394 2.46785593032837 2.54038739204407 2.30631041526794 2.37090921401978 2.42969870567322 2.09612846374512 2.22901797294617 2.20563244819641 1.8307009935379 1.87386405467987 2.58839559555054 3.95022559165955 1.12099146842957 0.270143896341324 0.599819123744965 1.47408032417297 2.29955458641052 2.64853954315186 4.09217929840088 4.961021900177 2.32696723937988 -0.521561145782471 -0.476122081279755 -0.349175602197647 -0.153223037719727 0.080327071249485 0.220099613070488 0.311452925205231 0.446376532316208 0.50661164522171 0.82630980014801 1.25810408592224 3.52278685569763 4.17122936248779 1.27122068405151 1.54443836212158 1.87184965610504 2.96328735351562 3.98139882087708 8.06880283355713 12.5155086517334 4.55595874786377 2.09018921852112 1.99962198734283 2.45678210258484 2.83090138435364 3.19845938682556 3.58251667022705 4.08466815948486
2.30552339553833 2.44154524803162 2.54546451568604 2.67124152183533 2.827641248703 4.05170392990112 2.81467437744141 3.07878684997559 2.60049176216125 2.64631867408752 2.78204774856567 2.415931224823 2.38239693641663 2.41291546821594 2.6417510509491 2.79267239570618 2.42328476905823 2.09274530410767 2.15895652770996 1.7653728723526 1.53620660305023 1.52304565906525 1.88442516326904 1.86263287067413 1.38650357723236 0.836528539657593 0.849415183067322 0.952805519104004 0.615304291248322 0.63596785068512 0.663119554519653 0.820562601089478 0.875540733337402 1.07204520702362 1.23414826393127 1.31896090507507 1.5976243019104 1.61863219738007 1.65710759162903 1.72830617427826 1.6842143535614 1.7937912940979 1.88718438148499 1.75297200679779 1.81694352626801 1.87962174415588 1.9341002702713 1.72671926021576 1.80470061302185 1.85760927200317 1.80338370800018 1.7839332818985 2.09564304351807 2.00324773788452 1.68292260169983 2.04609107971191 2.44177675247192 1.97307789325714 1.79804730415344 2.00023555755615 2.04326462745667 2.50090265274048 2.96352124214172 4.50190210342407 2.3049008846283 0.0529339499771595 -0.241820454597473 1.10878372192383 0.317914724349976 -0.112605445086956 0.0259830709546804 0.498208552598953 0.792993068695068 0.975124835968018 1.240065574646 1.31308400630951 1.37389266490936 1.74643898010254 2.06063747406006 2.41525197029114 3.23531651496887 3.89058065414429 5.98069429397583 6.81110000610352 9.08584403991699 11.5584897994995 13.2481632232666 18.9802417755127 23.8387546539307 38.1008605957031 22.9146118164062 14.0467596054077 5.489990234375 8.25450706481934 -2.02446532249451 -1.79957270622253 -1.82173407077789 -1.39764475822449 -1.16329860687256 -0.894553780555725 0.639140069484711 1.02194833755493 1.3548686504364 2.73199987411499 3.76946616172791 5.08536148071289 8.22179794311523 9.70002174377441 11.0424299240112 14.9167108535767 0.0260310582816601 0.176378816366196 0.624312341213226 1.02476167678833 1.26074719429016 1.54408097267151 1.71992492675781 1.70891952514648 1.87000250816345 2.16414451599121 2.29798555374146 2.38034653663635 2.5200572013855 2.68864989280701 2.80986928939819 2.7988965511322 2.80781674385071 2.88421225547791 2.95457792282104 2.69595050811768 2.78465914726257 2.87658023834229 2.50433993339539 2.55686640739441 2.48519706726074 3.72970271110535 2.31742072105408 1.34529376029968 0.904923319816589 1.061931848526 1.44539844989777 2.60070562362671 2.65035247802734 3.55311989784241 3.8035991191864 0.484931856393814 -0.355969578027725 -0.329777836799622 -0.210169851779938 -0.0232881139963865 0.108360685408115 0.170343607664108 0.283754914999008 0.356788367033005 0.372015625238419 0.593028783798218 1.37421631813049 2.67835021018982 1.70999002456665 1.64234614372253 1.94376575946808 2.2368483543396 2.34146571159363 2.70396137237549 9.1233377456665 4.91597843170166 1.88466119766235 3.82620215415955 2.62989163398743 2.01040577888489 2.54219603538513 3.0416316986084 3.34510564804077
2.17736315727234 2.32055926322937 2.57955002784729 2.76132917404175 3.03630709648132 3.04676628112793 3.11515712738037 3.25014209747314 3.22502541542053 3.35373854637146 3.50998735427856 3.01790356636047 3.1682116985321 3.31182789802551 2.82442474365234 2.52302980422974 2.43825674057007 2.92581582069397 2.11010670661926 1.9137110710144 1.66157162189484 1.57917082309723 1.54175233840942 1.51587557792664 1.47998678684235 1.32760119438171 1.32454216480255 1.2056782245636 0.755444586277008 0.799003899097443 0.641565144062042 0.897855222225189 0.953635156154633 0.747647881507874 0.925460696220398 1.00681483745575 1.21000230312347 1.31906914710999 1.34833097457886 1.5073744058609 1.72441899776459 1.84329116344452 1.95500218868256 1.86207640171051 1.93857574462891 2.02376270294189 2.10890555381775 1.96251380443573 2.0924985408783 2.20185494422913 1.97886371612549 2.20829749107361 2.56762528419495 2.7202684879303 2.95958805084229 3.47590279579163 3.36064052581787 3.15567827224731 3.65885806083679 3.85467147827148 3.40673065185547 3.66129112243652 4.02558135986328 2.9039306640625 2.5715320110321 -0.219053223729134 -0.184574231505394 -0.174224689602852 -0.0525241382420063 -0.165099367499352 -0.124852128326893 0.0882613509893417 0.364172339439392 0.480572640895844 0.847792267799377 1.00097239017487 1.04430294036865 1.2326534986496 1.54732573032379 1.64782571792603 2.16497850418091 2.56245470046997 3.14919829368591 4.24154996871948 5.7383246421814 8.71672821044922 10.0173110961914 15.7739725112915 20.1071605682373 36.0771522521973 29.0598659515381 15.1398468017578 5.35658359527588 5.72059631347656 0.361312210559845 1.32285451889038 -1.66126656532288 -1.38907134532928 -1.07299900054932 -0.843727231025696 -0.347032457590103 0.0593639872968197 0.930543661117554 2.74287486076355 3.24717450141907 4.36644315719604 7.97973155975342 8.72365283966064 11.8950099945068 14.6607685089111 0.607620894908905 0.682393908500671 1.12095904350281 1.60182809829712 1.7857084274292 1.91441643238068 1.97382831573486 1.98597609996796 2.08337450027466 2.25401926040649 2.35976243019104 2.55667996406555 2.77886343002319 2.95078349113464 2.95621991157532 3.02385425567627 3.13536977767944 3.22861337661743 3.17712259292603 3.15924000740051 3.22484564781189 3.30630230903625 3.02207159996033 3.09409594535828 3.20543813705444 2.83320617675781 2.87554287910461 2.70569372177124 2.23151183128357 2.28118467330933 1.58115124702454 2.12076091766357 2.29007601737976 2.44872903823853 3.20896053314209 1.81638550758362 -0.141462787985802 -0.195790871977806 -0.111089177429676 -0.00222783396020532 0.0868655294179916 0.140116453170776 0.188066065311432 0.232495725154877 0.248693108558655 0.557981252670288 0.990967214107513 1.27341210842133 1.48528909683228 1.70064735412598 1.91952741146088 2.13460922241211 2.36507415771484 2.46133399009705 3.07764315605164 3.37985920906067 2.37166237831116 4.38856410980225 4.21051025390625 2.1055121421814 2.03281164169312 2.18361806869507 2.46996474266052
1.87122964859009 2.02372360229492 2.48147940635681 2.71396446228027 2.95321249961853 3.12712335586548 3.16428780555725 3.29024934768677 3.46881580352783 3.60457444190979 3.75263118743896 3.77852463722229 3.9766857624054 4.19215774536133 3.50132417678833 3.5793673992157 3.71318173408508 2.84947657585144 2.65084338188171 2.49320125579834 1.98657548427582 1.74947082996368 1.7372944355011 1.93777215480804 2.05818271636963 1.92173135280609 1.27379727363586 1.05601072311401 1.00987768173218 1.23143148422241 1.14755022525787 1.63497006893158 1.57989096641541 0.839654982089996 0.685725629329681 0.746741831302643 1.0298855304718 1.1003805398941 1.20598566532135 1.41686511039734 1.36866497993469 1.44874620437622 1.69543623924255 1.90285265445709 2.0140368938446 2.14000725746155 2.26245927810669 2.18469738960266 2.35552406311035 2.52724289894104 2.42500948905945 2.70545196533203 3.09124135971069 3.16766667366028 3.66208434104919 4.20159769058228 4.26577806472778 4.95402908325195 5.64040470123291 5.21440124511719 6.49247074127197 7.89619445800781 6.5167384147644 3.5157458782196 0.277194231748581 -0.118388310074806 -0.0618711896240711 -0.119605682790279 -0.0721063837409019 -0.0458542630076408 -0.0263760648667812 -0.00706544984132051 0.0256883408874273 0.0807928889989853 0.247488722205162 0.430737167596817 0.451209366321564 0.601826250553131 1.05766141414642 1.25599610805511 1.53139460086823 1.92114043235779 2.08037686347961 2.83976292610168 3.38565564155579 4.68794584274292 6.23703765869141 10.1578464508057 15.0759477615356 23.306432723999 35.4096412658691 17.7252368927002 6.97109460830688 0.371038019657135 1.65094602108002 1.97134327888489 -1.2883505821228 -1.1109584569931 -0.86584335565567 -0.577596664428711 -0.360599011182785 -0.136922135949135 0.928245663642883 2.53811526298523 2.83356332778931 4.50089359283447 7.98932647705078 13.5320234298706 15.66419506073 12.1756372451782 3.05208945274353 1.0216178894043 1.34634160995483 1.84025681018829 2.08053541183472 2.19930839538574 2.18907761573792 2.16781044006348 2.25825786590576 2.42036437988281 2.52082490921021 2.66736769676208 2.87046122550964 3.03332996368408 3.21756386756897 3.35995483398438 3.42951917648315 3.36403751373291 3.3729248046875 3.45347738265991 3.53513503074646 3.46580100059509 3.45682072639465 3.54506301879883 3.65291428565979 3.37469625473022 3.46205258369446 3.54508972167969 3.11485147476196 3.18820762634277 3.02737522125244 2.51233339309692 2.55046439170837 1.71855926513672 1.2839971780777 1.55770516395569 1.3841689825058 0.0928631722927094 0.0164286438375711 0.0509719476103783 0.0929176583886147 0.188552260398865 0.219587475061417 0.267803490161896 0.419079065322876 0.63888818025589 0.926259279251099 1.2451947927475 1.44437026977539 1.5833226442337 1.82315409183502 2.04120254516602 2.25181698799133 2.33604764938354 2.37629532814026 2.55144238471985 2.80535984039307 4.68893384933472 5.36931180953979 2.4302978515625 2.43016028404236 2.41860580444336 2.33423376083374
1.74981737136841 1.88425135612488 2.15092325210571 2.3091356754303 2.52731919288635 2.9046049118042 3.02651453018188 3.15861821174622 3.35689735412598 3.62121152877808 3.76198124885559 4.02289772033691 4.2308087348938 4.47447061538696 4.49903202056885 4.71236038208008 4.95551013946533 3.99744033813477 4.15062856674194 4.40062475204468 2.9818856716156 2.74147534370422 2.82085919380188 2.14494943618774 1.77389025688171 1.76901006698608 1.40129590034485 1.36057770252228 1.70918142795563 1.43775582313538 1.25857615470886 1.78815960884094 2.11385440826416 0.864153146743774 0.497806012630463 0.55371218919754 0.634019494056702 0.754076480865479 1.34246873855591 1.88253390789032 1.48574376106262 1.03998970985413 1.30824208259583 1.49081945419312 1.60489749908447 1.71426022052765 2.03947353363037 2.32561230659485 2.53832578659058 2.78704476356506 2.83329319953918 3.17483949661255 3.57585549354553 3.70773363113403 4.22409820556641 4.80186462402344 4.98797082901001 5.83053255081177 6.71502542495728 7.01819896697998 9.14274215698242 9.58773136138916 6.08405876159668 1.70358431339264 -0.430398017168045 -0.162745952606201 -0.00479554384946823 0.0323371067643166 0.112418912351131 0.147372737526894 0.0569564253091812 0.0756899937987328 0.0705465748906136 0.0490953885018826 0.0618814900517464 0.0283345859497786 0.0540961250662804 0.117740653455257 0.313722491264343 0.531374454498291 0.736257612705231 1.30988740921021 1.55105531215668 2.0210485458374 2.53091359138489 2.83444166183472 4.22851896286011 4.97459411621094 8.20897197723389 10.747368812561 28.8614120483398 20.6229877471924 8.08653163909912 -0.431796371936798 -0.776787579059601 2.43516159057617 1.23123896121979 -0.688227951526642 -0.527439653873444 -0.266113609075546 0.0479401648044586 0.330849409103394 0.601936995983124 0.910646378993988 1.35440635681152 6.66312646865845 9.6293478012085 18.9171009063721 18.8101654052734 11.6751022338867 2.43027997016907 1.43797934055328 1.64305830001831 2.02789878845215 2.28354549407959 2.37747168540955 2.33688020706177 2.41910123825073 2.58759093284607 2.70365524291992 2.75831317901611 2.89913010597229 3.09179902076721 3.21604442596436 3.3623628616333 3.49252033233643 3.53603363037109 3.62967491149902 3.72534608840942 3.75861144065857 3.66208076477051 3.6775906085968 3.77647924423218 3.8745391368866 3.80354261398315 3.81224417686462 3.91943526268005 4.02946949005127 3.71501421928406 3.823246717453 3.9252564907074 3.47884750366211 3.56429553031921 3.35364460945129 2.81021881103516 2.89715600013733 1.97432100772858 2.23219156265259 1.27863705158234 1.09961307048798 0.583659708499908 0.309815496206284 0.376668632030487 0.341662794351578 0.446942985057831 0.665528059005737 0.908634722232819 1.1450229883194 1.3343653678894 1.50432968139648 1.72871804237366 2.03944754600525 2.15625715255737 2.25028467178345 2.27835464477539 2.40306377410889 2.48850560188293 3.32032632827759 4.71266508102417 2.66115403175354 2.66776871681213 2.67754530906677 2.618079662323
1.65670239925385 1.77070093154907 1.98672580718994 2.15399789810181 2.31891107559204 2.55271434783936 2.65915012359619 2.76641011238098 2.8658492565155 3.46714091300964 3.57874870300293 3.83852863311768 4.18355131149292 4.37675666809082 4.80648326873779 5.0516357421875 5.34199953079224 5.43126916885376 5.80974769592285 6.29291486740112 4.91284656524658 5.51897764205933 6.68505048751831 3.27641582489014 1.42648243904114 1.73187744617462 1.70465302467346 1.96508824825287 2.53303527832031 1.62175452709198 1.08217394351959 1.83542561531067 2.63859915733337 1.3286269903183 0.39551830291748 0.450104802846909 0.476208060979843 0.936454892158508 1.59690403938293 1.53388679027557 0.983778417110443 0.764308989048004 0.800450086593628 1.05978739261627 1.16625702381134 1.26233744621277 1.63595616817474 1.89353978633881 2.10621356964111 2.67498159408569 3.18290448188782 3.59877562522888 4.00808095932007 4.18045043945312 4.70795822143555 5.29278087615967 5.62205171585083 6.47266530990601 7.53066873550415 8.09408378601074 10.3223371505737 10.3949909210205 8.2103385925293 0.463432848453522 -0.519404649734497 -0.248591169714928 -0.116672784090042 0.0922489836812019 0.190204113721848 0.251961290836334 0.172001630067825 0.17680835723877 0.179657518863678 0.100445836782455 0.136041283607483 0.109984740614891 0.0932187810540199 0.127451121807098 0.0721607357263565 0.111829742789268 0.194680422544479 0.384784549474716 0.679297626018524 0.983859956264496 1.71173858642578 2.03877639770508 2.97625660896301 3.76920604705811 4.33349227905273 7.3773250579834 16.1390247344971 13.6357040405273 10.9648094177246 4.42309761047363 1.67162418365479 -0.218155190348625 1.82090258598328 -0.00286867935210466 -0.0781634002923965 0.13871368765831 0.484159857034683 0.801304399967194 1.1323516368866 1.56158399581909 3.13462996482849 5.98257541656494 9.63844776153564 23.8331146240234 17.4854373931885 7.34271144866943 1.88524448871613 1.98752009868622 2.09168076515198 2.27597260475159 2.42367911338806 2.40958523750305 2.48541927337646 2.66768026351929 2.84454441070557 2.91149210929871 3.09925127029419 3.2725772857666 3.38460755348206 3.4620418548584 3.65901827812195 3.78531050682068 3.75642323493958 3.7600724697113 3.83580422401428 3.87136173248291 3.96786689758301 4.07355260848999 4.1046314239502 4.00485610961914 4.05208492279053 4.17064905166626 4.27288246154785 4.1857385635376 4.20038843154907 4.33571624755859 4.47923278808594 4.15151453018188 4.24809074401855 4.37407350540161 3.91112899780273 4.03665399551392 3.81221842765808 3.19999957084656 3.26332592964172 3.33181953430176 2.24647378921509 1.68324089050293 1.68818938732147 1.15173578262329 0.725361108779907 0.666916251182556 0.907737910747528 1.12778317928314 1.28432965278625 1.41358840465546 1.62725031375885 1.94957554340363 2.09767961502075 2.21580672264099 2.21795845031738 2.25244331359863 2.38376259803772 2.42025279998779 3.03751420974731 2.93291425704956 2.79568433761597 2.73129844665527 2.80986762046814
1.49674189090729 1.59496009349823 1.89735972881317 2.04450821876526 2.20790195465088 2.43356204032898 2.50109791755676 2.59643936157227 2.68105435371399 3.01846313476562 3.08670353889465 3.21147894859314 3.93578696250916 4.10290575027466 4.53103017807007 4.8983039855957 5.19094753265381 5.92695665359497 6.33358955383301 6.86552762985229 7.49356746673584 8.64572811126709 9.62751007080078 6.82621622085571 1.06429219245911 1.00405502319336 1.57517611980438 2.11423873901367 2.61932277679443 2.07331371307373 0.658167064189911 1.13180649280548 2.16678905487061 1.98021197319031 0.375259667634964 0.415340632200241 0.495140343904495 0.483466595411301 0.747119784355164 0.512278974056244 0.560097515583038 0.603082895278931 0.638093113899231 0.777810752391815 0.861212849617004 0.959085404872894 1.10004198551178 1.46592938899994 1.66515517234802 2.31268954277039 2.78360605239868 3.17228245735168 4.06319665908813 4.55268001556396 5.12942886352539 5.72412776947021 6.36798095703125 7.35405349731445 8.16633892059326 9.8403787612915 11.7593250274658 12.6666078567505 7.5940055847168 -0.293285757303238 -0.587566018104553 -0.395895928144455 -0.236545667052269 0.0462810397148132 0.202775999903679 0.230327978730202 0.261823832988739 0.269402772188187 0.274863541126251 0.185262814164162 0.192593067884445 0.215393871068954 0.257478803396225 0.251589745283127 0.195026382803917 0.15851317346096 0.242303401231766 0.314759254455566 0.384734094142914 0.45081040263176 0.51419997215271 0.873173892498016 1.42551815509796 2.55959320068359 3.07503175735474 5.33904504776001 6.75519704818726 10.053674697876 14.1931562423706 5.22154664993286 0.764635264873505 2.26755833625793 0.151025012135506 0.226653933525085 0.37265619635582 0.595126569271088 0.87179696559906 1.24559199810028 1.6740061044693 2.08984756469727 2.50775527954102 2.86337351799011 3.89469766616821 23.2710285186768 7.19061708450317 2.47856259346008 2.48290967941284 3.81929349899292 2.8099250793457 2.49843549728394 3.17687654495239 2.57542324066162 2.61667251586914 2.76936864852905 2.94049739837646 3.14839434623718 3.3801212310791 3.55295872688293 3.65660429000854 3.84631085395813 4.01861095428467 4.05832767486572 4.05247020721436 4.10962343215942 4.16946506500244 4.1218376159668 4.11548471450806 4.19321537017822 4.2369909286499 4.3583927154541 4.48415660858154 4.52319192886353 4.41065406799316 4.48371553421021 4.6365532875061 4.75434970855713 4.64628982543945 4.67940759658813 4.83844327926636 4.98564624786377 4.62920570373535 4.78819227218628 4.9521656036377 4.45650815963745 4.61392498016357 4.75984859466553 4.47141408920288 3.85163307189941 4.16543912887573 3.06059741973877 2.650306224823 2.4652853012085 1.56587994098663 1.11296820640564 1.27430820465088 1.41492331027985 1.58504343032837 1.78669238090515 2.00279188156128 2.09024214744568 2.11919283866882 2.20687747001648 2.32282829284668 2.39810514450073 2.95262455940247 2.93113207817078 2.902259349823 2.70994830131531 2.69557452201843
1.30239999294281 1.37558388710022 1.69249427318573 1.83820724487305 1.99321591854095 2.38745617866516 2.45638203620911 2.53625392913818 2.61499214172363 2.80089616775513 2.86958885192871 2.92931389808655 3.31967091560364 3.43248558044434 3.66087961196899 4.58724880218506 4.87004518508911 5.63007068634033 6.05159425735474 6.51928472518921 8.12328243255615 9.24833011627197 11.4170083999634 13.5571098327637 0.601407885551453 0.93017852306366 1.47806620597839 1.6312004327774 2.52929759025574 1.85572516918182 1.10064625740051 0.654263019561768 0.972397029399872 1.11251163482666 0.40544992685318 0.416039764881134 0.523681342601776 0.509682834148407 0.924877524375916 0.559046387672424 0.503706097602844 0.74441385269165 0.562736511230469 0.640726327896118 0.689831972122192 0.778846323490143 0.889142870903015 1.18722295761108 1.34212779998779 1.64422881603241 2.24526834487915 2.64126825332642 3.59135794639587 4.02379131317139 4.52251672744751 6.03665828704834 6.9060525894165 7.98659324645996 9.01230907440186 11.1714296340942 13.6359891891479 13.974308013916 6.6091456413269 -0.763298451900482 -0.533793807029724 -0.38740935921669 -0.336970329284668 -0.0530285015702248 0.209644079208374 0.286602228879929 0.293490350246429 0.305109590291977 0.247308596968651 0.283770829439163 0.290823966264725 0.298946976661682 0.392115026712418 0.196350887417793 0.19985157251358 0.177959263324738 0.279269099235535 0.373709321022034 0.445637047290802 0.523000717163086 0.593764841556549 0.633115887641907 0.669820725917816 0.777270495891571 1.42205274105072 2.82534694671631 4.51289892196655 9.78324508666992 10.7854042053223 5.16113376617432 1.35708236694336 1.11154210567474 0.42599093914032 0.56048595905304 0.770366370677948 1.01586198806763 1.2711079120636 1.61109602451324 2.01762270927429 2.44467329978943 2.83358311653137 3.00344109535217 3.08546113967896 3.18379712104797 4.64557361602783 5.19461488723755 12.5187501907349 8.02073574066162 2.79834532737732 2.84327411651611 2.88251447677612 2.83580899238586 2.81082773208618 2.90219664573669 3.06742215156555 3.27099943161011 3.48412489891052 3.69094324111938 3.9023163318634 4.1098484992981 4.26403713226318 4.35485458374023 4.43765830993652 4.49321985244751 4.50237274169922 4.48046636581421 4.53244972229004 4.59416818618774 4.53176927566528 4.52578973770142 4.65319204330444 4.67685699462891 4.82844734191895 4.99408578872681 5.01900196075439 4.9024224281311 5.0241231918335 5.19595146179199 5.31392335891724 5.19703817367554 5.26721286773682 5.45202541351318 5.62683725357056 5.26681709289551 5.48682689666748 5.72651863098145 5.92626523971558 5.44589710235596 5.77532148361206 5.57045984268188 5.16464614868164 5.62553119659424 4.02033472061157 3.62619566917419 3.33305931091309 2.09208059310913 1.57588982582092 1.67094135284424 1.82480013370514 1.93702387809753 2.08041501045227 2.21447968482971 2.51185154914856 2.5554575920105 2.91097140312195 3.10863733291626 3.09481406211853 3.11178708076477 3.08198761940002
1.1956672668457 1.22424292564392 1.4457551240921 1.58551156520844 1.79214012622833 2.16657423973083 2.32025814056396 2.34808993339539 2.42738389968872 2.72903060913086 2.77565169334412 2.80890011787415 3.00244212150574 3.10213565826416 3.29559731483459 3.86250758171082 4.057776927948 4.5269980430603 5.80044460296631 6.04769229888916 7.53141117095947 8.69092464447021 10.417932510376 16.2887573242188 0.341296166181564 0.555096805095673 1.27981460094452 1.54557919502258 1.52706027030945 1.71377420425415 1.63135254383087 1.0802675485611 1.21389198303223 0.826545476913452 0.338087201118469 0.309943675994873 0.421041220426559 0.548125565052032 0.579148292541504 0.883074760437012 0.909984946250916 1.28765630722046 0.586750864982605 0.522356629371643 0.666706621646881 0.742403388023376 0.787340819835663 0.962085843086243 1.17046928405762 1.41348457336426 1.86551702022552 2.25281882286072 2.80038452148438 3.3228497505188 3.69160032272339 5.17514896392822 5.92778730392456 6.85985946655273 9.68523597717285 11.8607749938965 14.3440752029419 14.8751840591431 4.83154249191284 -0.650587558746338 -0.340851962566376 -0.184920102357864 -0.208725333213806 -0.0668046548962593 0.215957969427109 0.305492728948593 0.323392957448959 0.334829837083817 0.310747921466827 0.321329295635223 0.326963931322098 0.2695352435112 0.401458293199539 0.301298856735229 0.305541008710861 0.205093875527382 0.312052845954895 0.42398664355278 0.504336953163147 0.583507835865021 0.646239817142487 0.697760939598083 0.73401415348053 0.771527349948883 0.809295892715454 0.873599648475647 1.56233251094818 2.44683384895325 9.02954864501953 7.50267744064331 3.21074438095093 0.600979804992676 0.725230574607849 0.912558734416962 1.09383058547974 1.35478234291077 1.61255609989166 1.83802688121796 2.18683385848999 2.74777770042419 3.01585674285889 3.16733360290527 3.24096059799194 3.20032024383545 3.27719926834106 3.34449887275696 11.0359687805176 9.60144233703613 3.04509329795837 3.19128680229187 4.64361000061035 4.07301568984985 3.13149976730347 3.17514848709106 3.27957057952881 3.4199845790863 3.60596942901611 3.80323672294617 4.0300726890564 4.20347690582275 4.38149452209473 4.55585861206055 4.69398260116577 4.75027990341187 4.83071422576904 4.90488290786743 4.95738935470581 5.00643539428711 4.97395753860474 5.03528833389282 5.09794235229492 5.03677463531494 5.04700756072998 5.22105264663696 5.21497583389282 5.40050745010376 5.59903478622437 5.62766933441162 5.47783470153809 5.69507169723511 5.89442348480225 5.98530149459839 5.84015464782715 5.98580360412598 6.23369455337524 6.50174713134766 6.68942403793335 6.38226222991943 6.70896482467651 6.97934246063232 6.70078611373901 7.31791591644287 7.12705755233765 7.06010055541992 7.64875221252441 5.44710922241211 5.55866003036499 5.16317462921143 3.15465641021729 2.26867055892944 3.05644035339355 2.52406024932861 2.69559144973755 2.7192816734314 2.86198568344116 3.0547776222229 3.19308733940125 3.25241541862488 3.30289340019226
1.31423938274384 1.14041388034821 1.27840232849121 1.41289460659027 1.60581874847412 1.9052985906601 2.09464979171753 2.1252589225769 2.25792837142944 2.5141122341156 2.53116893768311 2.57780408859253 2.88149356842041 3.01469254493713 3.28894877433777 3.5818088054657 3.74495625495911 4.01165580749512 4.68940496444702 4.92161989212036 5.6785364151001 7.42095184326172 8.34946441650391 16.0675926208496 5.77401351928711 0.018300361931324 0.828838348388672 1.24678659439087 1.44431567192078 1.55930244922638 2.09091234207153 1.72731804847717 1.97359216213226 2.04496216773987 1.65462028980255 2.2182502746582 1.7318115234375 1.29004979133606 1.12258183956146 0.510605692863464 1.3026750087738 0.618364691734314 0.647766411304474 0.66910183429718 0.733878672122955 0.757486641407013 0.822661995887756 0.907107055187225 1.11086916923523 1.32490348815918 1.75326800346375 2.16945457458496 2.53519725799561 2.82500600814819 3.17829704284668 3.83076906204224 4.45146751403809 5.24840402603149 7.96076488494873 9.35595512390137 13.6366453170776 16.1713008880615 4.38123035430908 -0.467333406209946 -0.106952138245106 0.0691736415028572 0.0335722602903843 0.132284715771675 0.439950525760651 0.539803266525269 0.430049866437912 0.407442778348923 0.344122588634491 0.35514709353447 0.361350387334824 0.330330073833466 0.340970486402512 0.344521552324295 0.280768841505051 0.31658273935318 0.353995740413666 0.457645922899246 0.563268482685089 0.633533418178558 0.694214046001434 0.758099496364594 0.801260352134705 0.837864220142365 0.89998060464859 0.976262629032135 1.03136658668518 1.0379866361618 1.21802175045013 4.94999885559082 3.90955924987793 0.938649773597717 1.07983362674713 1.2276918888092 1.36031341552734 1.58122599124908 1.79154336452484 2.03460431098938 2.39663243293762 2.78535652160645 3.10784506797791 3.2906653881073 3.29159069061279 3.33431005477905 3.40358781814575 3.47471308708191 3.43026924133301 3.50927019119263 3.50770282745361 5.05849075317383 4.94353103637695 3.45131373405457 3.45664215087891 3.51424527168274 3.57094359397888 3.67863178253174 3.84611821174622 4.01165294647217 4.17776966094971 4.36588954925537 4.57695293426514 4.66298341751099 4.77072668075562 4.88804912567139 5.03523445129395 5.18505382537842 5.23964166641235 5.36626625061035 5.43736791610718 5.50391244888306 5.62563896179199 5.57062721252441 5.64080190658569 5.71057844161987 5.62924957275391 5.7010703086853 5.93062591552734 5.85406351089478 6.08664083480835 6.31967782974243 6.34824275970459 6.23370838165283 6.50114965438843 6.79131174087524 7.01033306121826 7.14137554168701 6.95655632019043 7.30175256729126 7.70326519012451 7.96660614013672 7.87662649154663 8.52863502502441 8.97325801849365 9.07864856719971 10.0719213485718 9.62588310241699 10.8122835159302 11.6996965408325 8.9351863861084 12.6230344772339 11.2564458847046 5.39444255828857 2.51543211936951 2.68423700332642 2.76202535629272 2.92840313911438 3.12881827354431 3.18705272674561 3.25332260131836
1.33818686008453 1.14315366744995 1.16073322296143 1.26641297340393 1.38961756229401 1.66553044319153 1.85230088233948 2.02201318740845 2.25292348861694 2.24013209342957 2.34438276290894 2.34475111961365 2.62812352180481 2.76312375068665 3.01845908164978 3.55908226966858 3.62760972976685 3.83356547355652 4.19338226318359 4.45670557022095 4.96239900588989 5.73684501647949 5.9294605255127 10.5962429046631 11.2785520553589 0.256005525588989 0.199775412678719 0.633419692516327 0.920724511146545 1.3051735162735 1.57873427867889 1.90712320804596 2.09250903129578 2.35186767578125 2.99484801292419 3.67326045036316 3.86715579032898 3.94970536231995 5.5362868309021 3.13388514518738 0.50283944606781 0.678804337978363 0.792080760002136 0.897946894168854 0.772076904773712 0.806168079376221 0.878337681293488 0.962926387786865 1.18835234642029 1.46596050262451 1.76309108734131 2.06099700927734 2.33613562583923 2.63882398605347 3.06755352020264 3.61825037002563 4.17100095748901 4.84708833694458 5.80979204177856 6.13689565658569 7.88217735290527 12.8366327285767 3.32464218139648 -0.037555105984211 0.29211699962616 0.590220093727112 0.695198237895966 0.786475360393524 1.19972717761993 1.74186527729034 1.84781265258789 1.59320533275604 1.02025294303894 0.521764755249023 0.440867722034454 0.370284795761108 0.377342164516449 0.379133880138397 0.348891198635101 0.36687096953392 0.403045982122421 0.499035269021988 0.604925930500031 0.684594392776489 0.747711062431335 0.808349132537842 0.864593803882599 0.916486442089081 0.978347897529602 1.08884298801422 1.15270829200745 1.16005003452301 1.17120206356049 1.17507231235504 1.21846389770508 1.26228201389313 1.34105825424194 1.44772005081177 1.57460379600525 1.74032247066498 1.91741418838501 2.23054909706116 2.56317234039307 2.89414668083191 3.19767808914185 3.30630826950073 3.37803292274475 3.44769096374512 3.51923894882202 3.52423787117004 3.5765163898468 3.65351533889771 3.73410129547119 3.68516111373901 5.14556455612183 3.7242431640625 3.74255108833313 3.75456762313843 3.85864210128784 3.91852307319641 4.02181482315063 4.16932153701782 4.37300109863281 4.60617876052856 4.78295993804932 4.86842393875122 5.03156757354736 5.15913200378418 5.19318914413452 5.26099014282227 5.4208664894104 5.59752941131592 5.75283002853394 5.80173397064209 5.99802827835083 6.08387088775635 6.13775730133057 6.3694314956665 6.32471704483032 6.38576364517212 6.46082353591919 6.36932182312012 6.51165962219238 6.79437160491943 7.0905385017395 6.91657400131226 7.19191694259644 7.54642391204834 7.55534601211548 7.54102277755737 7.97613191604614 8.26748847961426 8.45476722717285 8.49144649505615 9.01735305786133 9.675048828125 10.0494575500488 10.4269924163818 11.5506229400635 12.0270643234253 13.490927696228 15.0745000839233 16.8838176727295 22.7868576049805 22.3497142791748 7.35328006744385 2.00126624107361 2.36059165000916 2.5739266872406 2.79173707962036 2.98418641090393 3.04984617233276 3.10651254653931
1.12441754341125 1.96064615249634 1.32172346115112 1.38325941562653 1.3543883562088 1.44430005550385 1.63467454910278 1.83192086219788 2.79621577262878 2.04462146759033 2.07205867767334 2.14962005615234 2.33453512191772 2.40962648391724 2.74733328819275 3.68097543716431 3.10724282264709 3.34829378128052 4.00207662582397 4.25870656967163 4.96943616867065 5.21515226364136 5.04500770568848 7.85162830352783 7.66382789611816 2.62878751754761 0.531497776508331 0.617908000946045 0.497455537319183 0.977850258350372 1.18629562854767 1.60375821590424 1.99974489212036 2.53956294059753 3.14557671546936 3.6035041809082 4.85632991790771 6.40680885314941 8.55976295471191 6.96097326278687 -0.176779001951218 0.0943403989076614 0.537990808486938 0.848988473415375 1.03066921234131 0.690786242485046 0.837368130683899 1.01192545890808 1.24849057197571 1.54631304740906 1.98899352550507 2.51396918296814 2.49312210083008 2.5229823589325 3.55127549171448 4.26573896408081 3.83706498146057 3.77434802055359 4.330246925354 5.40289115905762 3.38278579711914 4.7059760093689 4.82763624191284 0.434470474720001 0.708717405796051 1.11315786838531 1.39387762546539 1.62084782123566 2.09152626991272 2.63534092903137 2.87876129150391 2.5484676361084 1.94076895713806 1.98256170749664 1.70684444904327 1.09213924407959 0.553006768226624 0.46710279583931 0.390852808952332 0.401584625244141 0.459964901208878 0.558487772941589 0.661561250686646 0.744973361492157 0.811227262020111 0.872156620025635 0.940156996250153 1.00408935546875 1.06778395175934 1.15188634395599 1.23886120319366 1.25998187065125 1.2910441160202 1.31953907012939 1.36763226985931 1.44374144077301 1.52817571163177 1.63323843479156 1.78285813331604 1.9205025434494 2.1247570514679 2.45247578620911 2.76851940155029 3.04312300682068 3.22936773300171 3.28480458259583 3.3951530456543 3.46654105186462 3.53890156745911 3.62277054786682 3.70388197898865 3.78866791725159 3.79197859764099 3.85378932952881 3.95699691772461 4.04091691970825 3.91917324066162 4.01857471466064 4.11876726150513 4.18473958969116 4.17603778839111 4.32274436950684 4.48793697357178 4.68509912490845 4.88876867294312 5.10231304168701 5.28711032867432 5.38236665725708 5.47583723068237 5.66394662857056 5.80125045776367 5.8787727355957 5.86774301528931 6.0284857749939 6.23158836364746 6.39526414871216 6.5359959602356 6.79168605804443 6.88573980331421 7.01350450515747 7.33510208129883 7.67297172546387 7.56630420684814 7.5842547416687 7.61252117156982 7.47892427444458 7.9194769859314 8.31081199645996 8.10366821289062 8.2994270324707 8.7726526260376 8.84271240234375 9.09363269805908 9.85781478881836 10.2945222854614 10.5789079666138 11.3977041244507 12.084508895874 12.9424819946289 14.241623878479 15.4111318588257 16.7446231842041 20.6967926025391 24.1371898651123 21.1505565643311 10.6482667922974 1.13776183128357 1.58956611156464 2.13574242591858 2.46087002754211 2.69508910179138 2.79542469978333 2.96728849411011
1.13574659824371 1.45629251003265 1.83741474151611 1.52342844009399 1.55013573169708 1.49361491203308 1.5707540512085 1.74688732624054 2.99201464653015 1.83955228328705 1.88056576251984 1.97371959686279 2.1443145275116 2.21903705596924 2.57320880889893 2.57031464576721 2.58279871940613 2.87137866020203 3.45879411697388 3.65752387046814 4.33854293823242 5.09844207763672 5.08554124832153 7.91780042648315 4.85518312454224 2.57875752449036 1.19193553924561 1.10137569904327 0.915624678134918 0.844676911830902 0.93252295255661 1.14629459381104 1.61773037910461 1.7947940826416 2.46117401123047 3.02868509292603 4.84245491027832 6.33425521850586 8.29745483398438 11.144115447998 1.03317010402679 -0.526369392871857 -0.070898100733757 0.667178809642792 1.21346735954285 0.894028127193451 1.75043928623199 3.31905007362366 2.39858484268188 1.32228243350983 1.84654724597931 1.96000635623932 2.23952746391296 3.16302919387817 4.71993017196655 4.23618125915527 2.70330023765564 2.52266383171082 2.93803453445435 4.80672073364258 1.89384055137634 0.969949781894684 3.6424605846405 0.86155766248703 1.15525186061859 1.55994999408722 2.11200046539307 2.45987319946289 2.66359853744507 3.02288961410522 3.20136666297913 3.23413920402527 3.02599096298218 3.09073543548584 2.73009705543518 2.08634972572327 2.13023018836975 1.83099973201752 1.1641685962677 0.582192420959473 0.53628408908844 0.633534848690033 0.730776250362396 0.819849848747253 0.884588897228241 0.966399908065796 1.04438591003418 1.10294163227081 1.15222370624542 1.24368011951447 1.32505774497986 1.33864903450012 1.37499177455902 1.46551704406738 1.5552089214325 1.65891921520233 1.74857544898987 1.83948516845703 2.03897142410278 2.31057953834534 2.50495004653931 2.73566746711731 2.97754383087158 3.14963126182556 3.18595480918884 3.31832504272461 3.38628840446472 3.45846271514893 3.52224826812744 3.64351463317871 3.72606611251831 3.8131422996521 3.91455388069153 4.00646305084229 4.1071252822876 4.11629724502563 4.20733261108398 4.3193736076355 4.42420196533203 4.3597674369812 4.45278787612915 4.54455947875977 4.67993879318237 4.76234817504883 4.95429182052612 5.12266540527344 5.34572172164917 5.54756355285645 5.73893451690674 5.94798994064331 6.03271865844727 6.19960355758667 6.42740488052368 6.5548415184021 6.74144983291626 7.06892824172974 7.0140700340271 7.13722705841064 7.26732444763184 7.46042108535767 7.77544450759888 8.09429550170898 8.13188457489014 8.3876371383667 8.77487182617188 8.62056255340576 8.73510646820068 8.86739540100098 8.9632682800293 9.49157428741455 9.92850780487061 9.72614192962646 9.76117038726807 10.6231698989868 10.9038438796997 12.0425271987915 13.0482730865479 13.4208221435547 14.5846519470215 16.4739265441895 16.9674663543701 19.2904872894287 22.2695617675781 20.9450397491455 18.1630001068115 13.0572166442871 0.991433501243591 0.557527303695679 1.46228361129761 2.14119434356689 2.39444255828857 2.556804895401 2.69234299659729
1.15767931938171 1.30056464672089 1.54320847988129 1.62519955635071 1.63054859638214 1.61865127086639 1.69033992290497 2.87594699859619 1.76112103462219 1.7973655462265 1.86070334911346 1.98367726802826 2.82146763801575 2.72150301933289 1.99385631084442 2.20013833045959 2.46466875076294 2.42222142219543 2.78146147727966 2.89517784118652 3.62705826759338 4.43233919143677 5.16727161407471 6.28292083740234 6.47427415847778 1.59769976139069 1.34024202823639 1.36263632774353 1.35878968238831 1.50341904163361 1.48205316066742 1.25895071029663 1.10776722431183 1.22626614570618 1.80122995376587 2.38806176185608 3.11041021347046 4.60717725753784 6.71177005767822 12.0137901306152 3.54098153114319 -0.378507107496262 -0.418615281581879 -0.166898533701897 0.647269427776337 1.26443231105804 2.07690072059631 3.67907476425171 3.34630227088928 0.591634273529053 0.901412665843964 1.65454363822937 2.27298665046692 3.70723652839661 3.42294764518738 2.72196650505066 1.37164783477783 1.46433341503143 1.38631045818329 1.3533935546875 1.42086410522461 1.18843984603882 1.74135315418243 1.2035117149353 1.64089751243591 2.11248445510864 2.56994771957397 2.9867525100708 3.20037031173706 3.40242457389832 3.68693256378174 3.74094486236572 3.40473651885986 3.43230700492859 3.46277093887329 3.25207710266113 3.3254566192627 2.93592023849487 2.24958968162537 2.29860424995422 1.97701692581177 1.26180267333984 0.864526689052582 0.964952349662781 1.04003441333771 1.13067948818207 1.20121800899506 1.2244952917099 1.26614427566528 1.34106743335724 1.40729773044586 1.47179758548737 1.5329053401947 1.63150274753571 1.72615504264832 1.83648204803467 1.93285012245178 2.18866086006165 2.58030438423157 2.80735731124878 2.90582966804504 3.02434897422791 3.13682198524475 3.19541668891907 3.23307013511658 3.301185131073 3.37212991714478 3.4118869304657 3.56042122840881 3.64008712768555 3.72495698928833 3.80659532546997 3.93640637397766 4.03138399124146 4.13119125366211 4.25144672393799 4.36445331573486 4.48342418670654 4.49051189422607 4.6160364151001 4.74916648864746 4.86294031143188 4.82152795791626 4.96656656265259 5.10903406143188 5.27588129043579 5.36414098739624 5.60291624069214 5.81137180328369 6.01172685623169 6.23573303222656 6.47473859786987 6.73106575012207 6.80074405670166 7.07081937789917 7.37927770614624 7.65238475799561 7.87220478057861 8.34612369537354 8.23760318756104 8.63666152954102 8.70013809204102 8.40196704864502 8.75770282745361 9.16773796081543 9.1561222076416 9.68953990936279 10.46413230896 10.4810838699341 10.5342807769775 10.9202241897583 11.0523290634155 12.1119079589844 12.8944263458252 13.3564128875732 14.3073034286499 15.0896091461182 18.4303207397461 19.3736305236816 18.9916477203369 18.4276542663574 20.6018905639648 21.1298294067383 18.3590431213379 14.9494524002075 13.100305557251 4.62744665145874 -0.0972571074962616 0.436503052711487 1.50699532032013 1.91771304607391 2.33609414100647 2.50143003463745
1.17405211925507 1.28271460533142 1.40322864055634 1.51989555358887 1.68738973140717 1.70871651172638 1.79751658439636 2.00249242782593 1.772669672966 1.77864027023315 1.79742038249969 1.99401962757111 2.31105184555054 1.95343196392059 2.1400363445282 2.11204385757446 2.71059918403625 2.0374448299408 2.318199634552 2.38162064552307 2.97482585906982 3.46306157112122 4.54748821258545 5.29319000244141 5.92385292053223 1.35227251052856 1.39130485057831 1.53990244865417 1.56680631637573 1.63981521129608 1.69933450222015 1.74127411842346 1.84201180934906 1.77625870704651 1.48044395446777 1.64215397834778 1.95631098747253 3.46759390830994 4.66663885116577 8.21334934234619 6.02133178710938 4.46975231170654 -0.263792634010315 -0.244897827506065 -0.0270692482590675 0.67487621307373 1.56218910217285 2.76847624778748 4.1701283454895 0.11083210259676 0.656805992126465 1.4014710187912 2.72182440757751 2.94327473640442 2.30042409896851 1.52148795127869 1.49757528305054 1.1904753446579 1.28693234920502 1.53330421447754 2.26212573051453 2.60516357421875 1.35584008693695 1.48817539215088 1.97598707675934 2.48331832885742 2.87539672851562 3.40368485450745 3.66529679298401 3.79391598701477 3.91877126693726 3.94918370246887 3.87003755569458 3.95125317573547 4.00287342071533 3.64721035957336 3.69522523880005 3.72832298278809 3.51057147979736 3.59773683547974 3.17201328277588 2.44015765190125 2.50621604919434 2.15956091880798 1.37965714931488 1.34791851043701 1.39545130729675 1.4187707901001 1.44370543956757 1.50152218341827 1.57133650779724 1.63309800624847 1.71547889709473 1.80533468723297 1.92303943634033 2.06297659873962 2.2435839176178 2.6413209438324 3.11138868331909 3.17293453216553 3.21205544471741 3.28920483589172 3.27597665786743 3.21965575218201 3.28737497329712 3.35746312141418 3.42274832725525 3.47096753120422 3.5484778881073 3.63108706474304 3.67419838905334 3.84241676330566 3.93718981742859 4.03523874282837 4.12947845458984 4.27294445037842 4.38360691070557 4.5008692741394 4.64750289916992 4.7755913734436 4.92144823074341 4.94414758682251 5.10106658935547 5.26577949523926 5.3932523727417 5.40521669387817 5.58070182800293 5.71795129776001 5.94993543624878 6.07539892196655 6.31265163421631 6.5565824508667 6.75407123565674 7.03402900695801 7.28213596343994 7.55666875839233 7.88066911697388 8.09408092498779 8.56371212005615 8.89845275878906 9.31051349639893 9.88240718841553 9.78696346282959 10.5772457122803 10.5922222137451 9.70458984375 10.2777395248413 10.8740587234497 11.1982879638672 12.1995267868042 13.501708984375 14.7138729095459 16.5303115844727 15.9154481887817 15.8380241394043 18.701997756958 20.5461902618408 21.1697368621826 18.6715507507324 16.6239280700684 14.299729347229 17.0924320220947 19.8947830200195 15.3506336212158 11.5765571594238 8.1598424911499 4.47639179229736 -0.521522998809814 -0.104481786489487 0.815135359764099 1.44014286994934 1.82833886146545 2.04024004936218
1.17229306697845 1.25591802597046 1.37495470046997 1.50955724716187 1.77202641963959 2.33562827110291 2.86872506141663 1.80239069461823 1.82511448860168 1.84210979938507 1.85178434848785 2.04583716392517 1.83297121524811 2.08850884437561 2.21530556678772 2.33161783218384 2.25964760780334 2.48393487930298 1.94027078151703 2.0429859161377 2.275386095047 2.7130229473114 3.39848113059998 4.31012916564941 4.28089714050293 1.53429472446442 1.48696005344391 1.49114918708801 1.54522240161896 1.5757851600647 1.75665783882141 1.84300935268402 1.96605610847473 2.01661443710327 2.06267642974854 2.12023854255676 2.00406575202942 2.30406832695007 2.90272665023804 5.23635339736938 6.15753269195557 4.81007099151611 0.276593178510666 0.111710615456104 0.0913198217749596 0.199404582381248 0.809300363063812 1.52161014080048 2.94170212745667 0.0089192958548665 0.194992572069168 0.505056858062744 1.4584653377533 2.57714867591858 1.355055809021 1.48112225532532 0.957775950431824 0.383024096488953 0.878934800624847 1.60243821144104 2.3425304889679 4.20339107513428 1.71023619174957 1.73943555355072 2.02965641021729 2.57770586013794 3.08665060997009 3.53696727752686 3.98023819923401 4.03291034698486 4.07837915420532 4.12648630142212 4.11691617965698 4.20372486114502 4.22730207443237 4.15752172470093 4.25313520431519 4.30696535110474 3.91867160797119 3.99103903770447 4.02463340759277 3.81090950965881 3.91542649269104 3.45883631706238 2.67475008964539 2.75804829597473 2.3817720413208 1.62312304973602 1.65499138832092 1.71715664863586 1.79012989997864 1.81491994857788 1.86859571933746 1.98620581626892 2.22336912155151 2.3822615146637 2.64178133010864 3.02608633041382 3.35306024551392 3.43870615959167 3.39320921897888 3.35167241096497 3.39766073226929 3.44773006439209 3.52097749710083 3.50399851799011 3.45397233963013 3.5324878692627 3.61400699615479 3.68346047401428 3.74552845954895 3.83563685417175 3.93215608596802 3.97970414161682 4.172532081604 4.28253507614136 4.3989143371582 4.51224708557129 4.66581630706787 4.80365514755249 4.9469518661499 5.12301301956177 5.28550052642822 5.46386814117432 5.51209783554077 5.69248008728027 5.87295579910278 5.99144983291626 6.04881429672241 6.22294092178345 6.46226644515991 6.6552472114563 6.81481456756592 7.0727391242981 7.32022190093994 7.61008977890015 7.79831838607788 8.19514656066895 8.58477592468262 9.05652332305908 9.50479602813721 10.0735569000244 10.4991312026978 11.3921642303467 12.1379909515381 12.6802186965942 14.1959276199341 14.1912021636963 14.1744861602783 18.1920070648193 19.8716239929199 20.7278957366943 19.4899444580078 15.5503606796265 15.5850276947021 21.2675685882568 22.1349143981934 17.1486988067627 17.825611114502 16.4673748016357 12.5582942962646 11.6790418624878 15.0046730041504 10.9897918701172 5.47177457809448 3.32526826858521 -0.908440351486206 -0.871856033802032 -0.351525664329529 0.334973186254501 1.0025360584259 1.29897665977478 1.54186499118805
1.18079102039337 1.31692850589752 1.40519416332245 1.60561740398407 2.31070137023926 4.11113786697388 1.96783661842346 1.61027276515961 1.69425177574158 1.70314824581146 1.85627329349518 1.88261437416077 1.90282678604126 1.92633175849915 2.04210257530212 2.39628505706787 2.41723036766052 2.18663382530212 1.98715674877167 2.13176965713501 2.17758989334106 2.15141320228577 2.12673592567444 3.06730461120605 3.99871802330017 1.81065392494202 1.63623738288879 1.62597727775574 1.61034440994263 1.60528469085693 1.63169944286346 1.70867252349854 1.82588386535645 2.09065675735474 2.17559671401978 2.24608874320984 2.26512145996094 2.31087374687195 2.74618482589722 3.57655215263367 4.53075075149536 3.57989954948425 1.08993899822235 1.08919179439545 0.737017512321472 0.568624019622803 0.581144452095032 0.583985269069672 0.795925378799438 1.13946676254272 0.103265725076199 0.0285575184971094 0.833232820034027 1.50209248065948 1.11466777324677 1.7338604927063 1.51282215118408 0.337469965219498 0.88737565279007 1.4835649728775 1.95313692092896 3.47776675224304 3.36390447616577 1.92969250679016 2.16416573524475 2.53863859176636 2.93444871902466 3.36465167999268 3.97863006591797 4.11449003219604 4.18177461624146 4.26903581619263 4.31898021697998 4.37223815917969 4.41848230361938 4.42327547073364 4.52406215667725 4.54616928100586 4.47611904144287 4.58058977127075 4.64550018310547 4.23796653747559 4.35075044631958 4.3906717300415 4.17938995361328 4.30681085586548 3.80589556694031 2.97203278541565 3.06195855140686 2.63320779800415 1.99257135391235 2.03062629699707 2.07352447509766 2.25172734260559 2.47404551506042 2.77083206176758 3.08144354820251 3.29525899887085 3.51404476165771 3.46269464492798 3.52922248840332 3.60243701934814 3.68179821968079 3.6366183757782 3.59431266784668 3.65743327140808 3.7041597366333 3.78784084320068 3.77164220809937 3.72178959846497 3.8151957988739 3.9105749130249 3.98530101776123 4.06237697601318 4.16976499557495 4.27913904190063 4.33073091506958 4.54886054992676 4.68741130828857 4.8308892250061 4.97949075698853 5.1488995552063 5.31318998336792 5.48657751083374 5.70949649810791 5.88024091720581 6.04063701629639 6.0694899559021 6.28151988983154 6.5535249710083 6.67456579208374 6.76623630523682 7.0205864906311 7.30896329879761 7.44240760803223 7.62354516983032 7.89325428009033 8.25677108764648 8.65273189544678 8.94745254516602 9.48259735107422 10.0254106521606 10.5794267654419 11.441065788269 12.4316291809082 13.8254051208496 15.3425121307373 16.0043106079102 19.7683334350586 23.1247253417969 18.9376258850098 12.0324678421021 14.7496547698975 15.1979198455811 13.2764825820923 15.2561960220337 18.422908782959 14.5198030471802 12.3883819580078 12.4330158233643 7.53359127044678 4.78254318237305 7.15829181671143 9.18001842498779 1.14174723625183 -1.16139113903046 -1.0764707326889 -0.873412132263184 -0.40417206287384 0.152683928608894 0.54001396894455 0.857445657253265 1.04670703411102
1.1957631111145 1.27830278873444 1.3656485080719 1.93780255317688 2.35156965255737 2.03932952880859 1.52195847034454 1.52625274658203 1.60659241676331 1.6320161819458 1.69444859027863 1.7482750415802 1.83102762699127 1.92844474315643 2.0516984462738 2.18938541412354 2.8851306438446 2.28406143188477 2.13067841529846 2.06336832046509 2.21098160743713 2.0294246673584 1.61505460739136 2.05946636199951 2.74069309234619 2.26723098754883 1.69043290615082 1.70959317684174 1.71740221977234 1.73518574237823 1.71087491512299 1.69654285907745 1.73696303367615 1.92918848991394 2.02169442176819 2.08847856521606 2.36545133590698 2.45075750350952 2.53759837150574 2.53080368041992 3.91671109199524 5.03468894958496 2.29800224304199 2.03793668746948 1.65676188468933 1.38981103897095 1.4699844121933 0.944012701511383 0.693767726421356 0.845953047275543 0.385409027338028 0.2452682107687 0.274312555789948 0.706802904605865 0.720977067947388 1.37741100788116 1.04122960567474 0.311704963445663 0.848640084266663 1.47116529941559 1.86012268066406 2.09426975250244 2.22500348091125 2.10334467887878 2.37639188766479 2.67219090461731 2.95594215393066 3.26657676696777 3.9390697479248 4.12034177780151 4.22627544403076 4.31692838668823 4.40412092208862 4.49188947677612 4.59508466720581 4.64620351791382 4.70059156417847 4.75342988967896 4.76520299911499 4.87459278106689 4.90233612060547 4.871253490448 5.01005744934082 5.07790374755859 4.6451997756958 4.78334665298462 4.82925271987915 4.63183259963989 4.7880220413208 4.22661304473877 3.32481741905212 3.46377897262573 2.9845335483551 2.55065155029297 2.77511167526245 3.18762564659119 3.37932062149048 3.53031206130981 3.46132206916809 3.60653829574585 3.67833805084229 3.75862240791321 3.70439958572388 3.78720831871033 3.87234020233154 3.96489763259888 3.91426515579224 3.88741827011108 3.95781016349792 4.00748205184937 4.08287334442139 4.04231739044189 4.032790184021 4.13906383514404 4.25353622436523 4.33544111251831 4.43208694458008 4.55842447280884 4.6954550743103 4.75169849395752 5.02168893814087 5.17696857452393 5.34683513641357 5.54340124130249 5.73054695129395 5.88469457626343 6.01352071762085 6.21748113632202 6.3931131362915 6.60912036895752 6.70408868789673 6.92000722885132 7.15583562850952 7.46034574508667 7.59088802337646 7.85736894607544 8.28066444396973 8.45539283752441 8.6549186706543 9.03629589080811 9.55222225189209 10.1209564208984 10.5514297485352 11.3306837081909 12.328275680542 13.4793643951416 14.8277912139893 16.8133182525635 19.4222507476807 23.2349700927734 16.0407543182373 8.94083595275879 8.86791133880615 11.9033784866333 9.72030544281006 10.2299737930298 13.2470703125 11.508358001709 6.31727600097656 6.12910509109497 3.94815182685852 1.74605298042297 1.14186084270477 2.71016311645508 -1.15362691879272 -1.37728142738342 -1.1342077255249 -0.757258415222168 -0.3167385160923 -0.083810068666935 0.205874606966972 0.468622356653214 0.745792388916016
1.25490021705627 1.28281664848328 1.34617960453033 2.12885618209839 2.90887999534607 1.66773426532745 1.46508431434631 1.48891794681549 1.54607498645782 1.57564902305603 1.59664595127106 1.68713963031769 1.79296505451202 1.95497012138367 2.04180812835693 2.13232517242432 2.42893004417419 2.55147767066956 2.21402335166931 1.90710508823395 2.32489442825317 2.15527367591858 1.80796754360199 1.64247763156891 1.85444521903992 1.83465814590454 1.6577320098877 1.70874512195587 1.73700976371765 1.76421821117401 1.79793131351471 1.81508708000183 1.8454395532608 1.93258988857269 2.05556654930115 1.97684979438782 2.19143295288086 2.27145791053772 2.4086480140686 2.66770052909851 2.73125290870667 4.02170467376709 2.93247818946838 2.55731606483459 2.63958382606506 2.74864745140076 2.52147603034973 1.98956286907196 1.76389634609222 1.94923174381256 1.30638229846954 0.914455831050873 0.964296996593475 0.748264253139496 0.611895442008972 0.945977210998535 0.30071347951889 0.516471743583679 0.97311931848526 1.48079407215118 1.8785674571991 2.068110704422 2.17184972763062 2.2269332408905 2.4215235710144 2.72823262214661 2.99306607246399 3.28793692588806 3.87013339996338 4.07182788848877 4.23002195358276 4.32028770446777 4.40760803222656 4.53050899505615 4.63485908508301 4.73614740371704 4.84995698928833 4.9708833694458 5.02457237243652 5.07829809188843 5.13922786712646 5.18663454055786 5.32798004150391 5.35789203643799 5.34670305252075 5.50368213653564 5.58073043823242 5.14271402359009 5.31587934494019 5.3636302947998 5.18554401397705 5.38342666625977 4.77008199691772 3.80963754653931 3.9533064365387 3.40351748466492 3.56491017341614 3.5351505279541 3.62699484825134 3.70223641395569 3.78018379211426 3.70491886138916 3.86857652664185 3.95512747764587 4.05021572113037 3.99322819709778 4.08724880218506 4.18564748764038 4.29639959335327 6.49470567703247 4.04976797103882 4.10879755020142 4.35346174240112 4.45654487609863 4.44059371948242 4.40656328201294 4.53471946716309 4.67053890228271 4.75928497314453 4.88419628143311 5.04222965240479 5.20275783538818 5.26488399505615 5.59063053131104 5.75827217102051 5.88335657119751 6.032142162323 6.1907114982605 6.36040353775024 6.49395179748535 6.7387638092041 6.96007776260376 7.19267654418945 7.49787092208862 7.67267990112305 8.06425857543945 8.5115966796875 8.6847562789917 9.19423866271973 9.68581104278564 9.83874702453613 10.3438653945923 10.8093919754028 11.4008941650391 12.1034307479858 12.9605655670166 14.1237564086914 15.3354654312134 17.0901412963867 18.6689968109131 25.3126335144043 9.62910747528076 7.34700012207031 8.02732086181641 7.603515625 8.43992710113525 10.2590856552124 10.3617658615112 5.7027850151062 3.3239209651947 -0.727970898151398 -2.23425316810608 -1.94694030284882 -1.7374519109726 -1.64741814136505 -1.49372279644012 -1.13255202770233 0.307765364646912 -0.794796705245972 -0.662895798683167 -0.260229855775833 0.287346124649048 0.572276771068573
1.32773447036743 1.35181307792664 1.43046534061432 2.93952226638794 2.38416218757629 1.39222025871277 1.45342004299164 1.45878827571869 1.47508776187897 1.5170384645462 1.55393052101135 1.61537778377533 1.71394336223602 1.85067808628082 2.03776454925537 2.1759238243103 2.20653343200684 2.62521600723267 2.19206261634827 1.96225619316101 1.98601067066193 2.29093527793884 1.90794563293457 1.84397459030151 1.85782039165497 1.87478840351105 1.69748044013977 1.70481145381927 1.71576356887817 1.72828078269958 1.78928172588348 1.83879828453064 1.88695764541626 1.93080961704254 2.00407290458679 2.21842646598816 2.33598899841309 2.46367931365967 2.36827778816223 2.48310470581055 2.61729741096497 2.87404990196228 2.8683717250824 2.93468928337097 2.91585493087769 3.00976538658142 3.01104140281677 3.21069765090942 3.51926517486572 3.33940291404724 2.65712594985962 2.4898681640625 2.68256521224976 1.8597697019577 1.58069670200348 1.55009186267853 0.808578908443451 0.838170886039734 1.21764206886292 1.5987902879715 1.88130736351013 2.06660413742065 2.14658379554749 2.25666737556458 2.49758291244507 2.77435207366943 3.05777096748352 3.47814249992371 3.8906877040863 4.04220151901245 4.30817842483521 4.20466232299805 4.26850557327271 4.46570873260498 4.59261131286621 4.71385478973389 4.87183904647827 4.99880266189575 5.13190031051636 5.26603317260742 5.40728807449341 5.46907997131348 5.53999614715576 5.60454940795898 5.68638229370117 5.84835290908813 5.88955450057983 5.91581964492798 6.1160192489624 6.19907569885254 5.75349712371826 5.97855186462402 6.03884887695312 5.90367794036865 6.16273498535156 5.44378423690796 4.43500661849976 4.66906499862671 4.84741926193237 4.17582750320435 3.78439402580261 3.88753032684326 3.97428894042969 4.06369113922119 3.98975086212158 4.17782735824585 4.28033924102783 4.38856554031372 5.44132995605469 8.60905647277832 4.28643321990967 4.36390018463135 4.58326482772827 4.64509344100952 4.73077297210693 4.78926610946655 4.89876699447632 4.87767934799194 4.85689067840576 5.01470327377319 5.180588722229 5.27593421936035 5.44100952148438 5.63798427581787 5.75556373596191 5.70992279052734 5.98198890686035 6.1278600692749 6.28812551498413 6.46290302276611 6.59950304031372 6.79130220413208 7.0853099822998 7.30701303482056 7.72959518432617 8.13472652435303 8.58723258972168 9.00441360473633 9.56813621520996 9.98861503601074 10.4524765014648 11.3438396453857 11.9636278152466 12.3028564453125 13.3460626602173 13.2411222457886 13.6984634399414 14.1352119445801 15.4787063598633 16.2245578765869 17.5065975189209 15.4934358596802 6.77057886123657 4.99345111846924 4.40911340713501 5.28763008117676 6.30349159240723 6.47382926940918 4.59818553924561 1.89490485191345 -2.88534545898438 -2.72729253768921 -2.33930230140686 -2.00951910018921 -1.79597008228302 -1.49012243747711 -1.10585343837738 1.9516134262085 4.3128867149353 -0.953295946121216 -0.388138800859451 -0.00671265786513686 0.22699373960495
1.40651547908783 1.44696187973022 1.52447378635406 2.64603137969971 1.64643359184265 1.65491795539856 1.47623550891876 1.42668378353119 1.44992208480835 1.47558128833771 1.51914250850677 1.56534779071808 1.60983121395111 1.73053479194641 1.9710932970047 2.24738597869873 2.10551142692566 2.35216975212097 2.50240969657898 1.71429455280304 1.98607885837555 2.16296696662903 1.94818079471588 1.95606136322021 1.97664511203766 1.99883615970612 1.95068109035492 1.96875870227814 2.00407075881958 1.80679214000702 1.83338510990143 1.8943852186203 1.95335173606873 1.99775636196136 2.0828754901886 2.1762421131134 2.29120278358459 2.37964773178101 2.64326190948486 2.79633593559265 2.96258687973022 2.84858083724976 2.95674610137939 2.98430728912354 3.23606443405151 3.42745685577393 3.81916308403015 3.45410561561584 3.88493156433105 5.34834766387939 4.10432052612305 4.58833646774292 4.4884238243103 3.58297181129456 3.80918502807617 3.95444297790527 2.52103042602539 2.53901052474976 2.99294257164001 1.59423172473907 1.8596431016922 2.10605406761169 2.20076537132263 2.39172124862671 2.69977235794067 3.02710652351379 3.38472771644592 3.88185143470764 4.68038415908813 5.45932865142822 4.24062252044678 4.26696395874023 4.29787588119507 4.32313013076782 4.38288545608521 4.53048324584961 4.75332832336426 4.88853597640991 5.10161352157593 5.29482555389404 5.43201541900635 5.60820722579956 5.77694702148438 5.95095205307007 6.01426696777344 6.08954954147339 6.1522741317749 6.28566694259644 6.50514078140259 6.54216766357422 6.62688255310059 6.87996101379395 6.9705057144165 6.54639434814453 6.83311080932617 6.90061187744141 6.83542156219482 7.17401504516602 7.54710674285889 6.66683006286621 5.64519929885864 5.86573028564453 5.04824829101562 4.07171726226807 4.19543361663818 4.30074071884155 4.40711545944214 4.32527780532837 5.98776865005493 7.88668060302734 4.43612003326416 4.4497184753418 4.83414602279663 4.99843883514404 5.12949991226196 5.06294584274292 5.15378141403198 5.24378395080566 5.31089448928833 5.43287754058838 5.40880250930786 5.41080665588379 5.60461664199829 5.79032182693481 5.75829267501831 5.80988740921021 5.91543674468994 6.06329679489136 6.06026220321655 6.35807514190674 6.50918960571289 6.71479654312134 6.9313383102417 7.31034135818481 7.68090391159058 8.11915016174316 8.47082710266113 8.99975109100342 9.59436511993408 10.1843204498291 10.9645156860352 11.8751239776611 12.3559608459473 13.5583209991455 14.7017860412598 14.4144163131714 15.5469417572021 17.361967086792 15.1261081695557 15.9310007095337 14.6395072937012 13.7019453048706 8.63924789428711 2.4327073097229 2.14466381072998 2.28845119476318 2.86642217636108 3.5941596031189 3.14035058021545 1.42208111286163 -2.5799298286438 -2.9174599647522 -2.59763050079346 -2.28244662284851 -1.86595189571381 -1.39069366455078 -0.353865832090378 0.0609252639114857 3.01923322677612 -0.88611775636673 -0.46437081694603 1.88007462024689 2.43053984642029
1.52840209007263 1.60359442234039 1.81817257404327 1.96680545806885 3.09465551376343 1.5413202047348 1.54325211048126 1.49091017246246 1.49497747421265 1.50828838348389 1.52621293067932 1.52334010601044 1.59981644153595 1.69120395183563 1.75236332416534 2.06839489936829 2.27290487289429 2.20101070404053 2.27821040153503 1.60974931716919 2.08907055854797 1.94451832771301 1.71675193309784 1.78949928283691 1.80876708030701 2.05252289772034 2.08408856391907 2.12365436553955 2.15009665489197 2.11163806915283 2.15920829772949 2.23283410072327 2.32015442848206 2.1249635219574 2.24005937576294 2.2642765045166 2.36895203590393 2.453458070755 2.56725287437439 2.70884728431702 2.86708354949951 3.23343992233276 3.41130399703979 3.49870228767395 3.24267435073853 3.37865829467773 3.70995545387268 4.75851583480835 6.1235237121582 8.15815925598145 4.48535251617432 3.69222736358643 4.76803064346313 5.99884986877441 7.12670421600342 6.6320629119873 5.68958616256714 7.38079929351807 7.42716073989868 3.22851610183716 1.80722224712372 2.17273807525635 2.3999171257019 2.68279767036438 3.01627802848816 3.43382954597473 3.8253321647644 4.26767635345459 6.47098112106323 6.05938863754272 4.26003217697144 4.29242992401123 4.32705020904541 4.34094142913818 4.476975440979 4.57950067520142 4.62130737304688 4.7243857383728 4.99385499954224 5.30041408538818 5.43961048126221 5.59276151657104 5.78759241104126 5.95894145965576 6.18933773040771 6.39341354370117 6.59956693649292 6.67306900024414 6.75639486312866 6.83954668045044 7.06692886352539 7.31972122192383 7.36584949493408 7.53134346008301 7.848219871521 7.95332765579224 7.58564710617065 7.96200656890869 8.3731803894043 8.44253826141357 8.58220767974854 9.11936473846436 8.06159591674805 7.15256643295288 7.4235954284668 6.39731311798096 4.41241788864136 6.05055046081543 7.715491771698 4.7120680809021 4.33109045028687 4.7589111328125 5.07134246826172 5.2295937538147 5.19266748428345 5.36139822006226 5.54385566711426 5.68712377548218 5.61393022537231 5.78331327438354 5.88875532150269 5.95584869384766 6.06349897384644 5.97749185562134 5.85654783248901 5.92540168762207 6.0117335319519 6.00042533874512 6.1117525100708 6.26054048538208 6.45088481903076 6.66985559463501 6.75026941299438 7.19379711151123 7.61245346069336 8.02495193481445 8.53960609436035 9.05784511566162 9.67283630371094 10.2570323944092 11.0136117935181 11.8964433670044 12.9131031036377 14.1025199890137 15.0851583480835 15.656192779541 17.6093826293945 19.0906448364258 16.3891944885254 10.994571685791 10.1953763961792 10.0987644195557 4.95192384719849 1.05274152755737 1.4309549331665 1.99535667896271 3.27170634269714 1.14417779445648 0.0696132555603981 -0.901401340961456 -2.5472252368927 -2.43519258499146 -2.19940233230591 -1.41986000537872 -0.271163135766983 1.219273686409 2.09944176673889 2.31960868835449 3.57465600967407 2.94192814826965 3.01218819618225 2.75695061683655 -0.0860248282551765
1.68611001968384 1.75175416469574 2.03103446960449 1.75105667114258 2.09587812423706 1.65970122814178 1.6360330581665 1.59493470191956 1.5710985660553 1.59161913394928 1.53844380378723 1.55186140537262 1.59220397472382 1.63325154781342 1.73801696300507 1.86676168441772 2.63368129730225 2.27034068107605 2.10785579681396 1.72062957286835 1.72174763679504 1.77570390701294 1.61431241035461 1.70382165908813 1.71336662769318 1.79894089698792 1.89271867275238 1.93027853965759 2.24044275283813 2.30058336257935 2.35660791397095 2.42999863624573 2.47617101669312 2.4871666431427 2.59697413444519 2.67229557037354 2.50417470932007 2.66010856628418 2.61599349975586 2.75938701629639 2.92112493515015 3.10916233062744 3.27670097351074 3.40094065666199 3.69382524490356 3.91711115837097 4.31753444671631 4.48297119140625 5.56306934356689 7.28550577163696 10.5949230194092 2.25383520126343 3.83018827438354 5.6443305015564 7.14056301116943 8.85933017730713 11.3717555999756 14.5621490478516 11.0110540390015 4.38126754760742 1.7055459022522 2.35802865028381 2.73600435256958 3.02067732810974 3.36244249343872 3.74237847328186 4.80894899368286 7.59346199035645 8.02273845672607 5.76618146896362 4.28799390792847 4.28579139709473 4.33216524124146 4.4213171005249 4.55729722976685 4.64038467407227 4.71115636825562 4.96428203582764 5.21727514266968 5.24736166000366 5.38933801651001 5.53929662704468 5.79605722427368 5.96942472457886 6.18497753143311 6.39385890960693 6.59904527664185 6.9051513671875 7.1480655670166 7.41335773468018 7.50344800949097 7.59534502029419 7.82892179489136 8.07822799682617 8.34657192230225 8.39035034179688 8.70456790924072 9.15132713317871 9.62156391143799 9.74202919006348 9.56724834442139 10.100378036499 10.187385559082 10.6717071533203 11.5143184661865 10.1862182617188 9.6988468170166 9.95544624328613 8.3073787689209 4.42366123199463 4.49804258346558 4.81907892227173 5.14813804626465 5.10352754592896 5.42127275466919 5.59841632843018 5.79633617401123 5.77997350692749 5.99180793762207 6.22430419921875 6.37079048156738 6.26658487319946 6.48972988128662 6.54151487350464 6.45165395736694 6.39664077758789 6.18619775772095 6.16617727279663 6.22109174728394 6.36786508560181 6.54622507095337 6.61961841583252 6.89448022842407 7.22280979156494 7.58347272872925 7.87481212615967 8.41378688812256 8.91399669647217 9.52137279510498 10.3445920944214 11.0672912597656 11.9288501739502 12.8733806610107 13.8820486068726 15.3505325317383 17.4162139892578 20.6373863220215 19.8586921691895 17.6688861846924 8.72472190856934 4.3366551399231 4.9841103553772 -0.489302843809128 0.499847888946533 -0.978097319602966 -0.937264204025269 0.304022520780563 -1.18407690525055 -2.07203269004822 -2.07097864151001 -1.89085638523102 -1.43901610374451 -0.885548532009125 0.133197695016861 1.53001713752747 2.71919322013855 2.88903546333313 4.70315551757812 7.18790435791016 8.31245517730713 -0.763745605945587 -0.570116400718689 -0.321960985660553
1.81694507598877 1.88050556182861 2.21823811531067 1.87616491317749 2.01146984100342 1.87308549880981 1.76274180412292 1.75518226623535 1.68358838558197 1.67129051685333 1.64233720302582 1.63972210884094 1.65349090099335 1.61753463745117 1.71880269050598 1.75425219535828 1.81349265575409 2.16648411750793 2.68132567405701 2.57240343093872 2.98967099189758 3.9224488735199 1.98113977909088 1.58665013313293 1.60655009746552 1.64622843265533 1.76949191093445 1.79937136173248 1.902268409729 2.01835131645203 2.07490396499634 2.11267685890198 2.53012657165527 2.63546895980835 2.75990271568298 2.81780362129211 2.87650775909424 3.07391381263733 3.17943143844604 3.07379865646362 3.34494757652283 3.15157103538513 3.29985070228577 3.38225531578064 3.46329426765442 3.60729503631592 3.95832848548889 5.0868353843689 6.29101610183716 7.69469881057739 7.05392074584961 1.80143618583679 2.57879137992859 3.44816255569458 5.2027153968811 8.75966930389404 11.1289205551147 13.4956016540527 14.8076877593994 1.24958527088165 1.744997382164 2.3907516002655 2.90966939926147 3.20279479026794 4.28304529190063 4.59392166137695 8.99113273620605 10.2900676727295 6.9084997177124 4.23614120483398 4.23599147796631 4.2397985458374 4.37388277053833 4.49118518829346 4.61501026153564 4.72417020797729 4.87516593933105 5.20735120773315 5.45169067382812 5.50475835800171 5.64845132827759 5.69533395767212 5.75104570388794 5.91955661773682 6.13029527664185 6.40220785140991 6.60821723937988 6.89933204650879 7.13924932479858 7.40631246566772 7.79507303237915 8.11002922058105 8.46401214599609 8.56982707977295 8.74047946929932 9.19058895111084 9.59011459350586 9.89164161682129 10.2264928817749 10.3260717391968 10.9170427322388 11.5850563049316 11.7381000518799 12.0763111114502 12.6648454666138 12.5516300201416 13.4421501159668 14.3379106521606 12.0508298873901 11.189920425415 11.5161008834839 10.4768590927124 6.64618110656738 5.16700267791748 5.48964214324951 5.66997909545898 5.66249990463257 6.05134963989258 6.2698278427124 6.48950290679932 6.45696401596069 6.65515232086182 6.89602994918823 7.02341222763062 6.86269044876099 6.94049406051636 7.01969051361084 6.96315336227417 6.88532447814941 6.91966915130615 6.74603223800659 6.87864112854004 7.15389585494995 7.42998647689819 7.46199178695679 7.9199047088623 8.44140625 8.95786952972412 9.47972393035889 10.2430324554443 10.9965524673462 11.624906539917 12.732816696167 13.8180084228516 14.8084468841553 16.2740802764893 19.1402854919434 24.9702568054199 12.5648670196533 7.18026304244995 3.7584981918335 -1.79070210456848 -2.35173773765564 -1.73668563365936 -2.37342119216919 -1.95057678222656 -1.55579018592834 -1.23210752010345 -0.419079065322876 -0.0232318341732025 0.162830427289009 0.454114377498627 1.39285814762115 3.72396612167358 5.06704521179199 0.969031691551208 2.68068242073059 6.1276798248291 9.13125514984131 8.47638893127441 -0.0553297959268093 -0.809492826461792 -0.26843848824501
