NCOLS 174
NROWS 32
XLLCORNER 353712
YLLCORNER 6701104
CELLSIZE 16 
NODATA_value -3.4e+38 
10.7103633880615 12.2961483001709 28.5813541412354 15.0865802764893 10.195595741272 8.37143802642822 7.80620050430298 6.94024848937988 5.93816614151001 4.08796691894531 3.47944259643555 2.76529693603516 0.994772970676422 -0.316678553819656 -0.556024551391602 -0.760326683521271 -0.833658277988434 -0.148444265127182 8.48025321960449 4.22856950759888 3.19738531112671 -0.90810090303421 -1.57319819927216 6.02575731277466 -1.6051744222641 -1.73095762729645 -1.8293309211731 0.274085193872452 11.9417476654053 6.82963943481445 6.0056939125061 8.87443923950195 4.46732521057129 16.7686595916748 14.8084487915039 2.11148524284363 9.78577327728271 3.27587008476257 13.426944732666 1.90453720092773 15.7886266708374 9.24588775634766 1.00352787971497 0.97305029630661 15.3443698883057 6.52097988128662 22.8064880371094 9.468337059021 6.64290285110474 4.0602388381958 3.93292045593262 1.73520684242249 20.9604225158691 9.6032133102417 6.32593965530396 5.83364534378052 14.9681940078735 13.1501045227051 9.87127780914307 5.16321659088135 3.34228134155273 2.5595965385437 15.8938074111938 2.28536200523376 1.49538564682007 1.45139503479004 22.1579551696777 18.5573253631592 11.294527053833 10.7847700119019 39.8496971130371 37.1410865783691 14.3599252700806 46.7535133361816 24.0706882476807 21.6307907104492 14.6946029663086 11.1862564086914 18.7824859619141 26.8218250274658 15.6707773208618 11.8864755630493 10.6710748672485 10.1848573684692 9.74731349945068 9.36463737487793 9.02924346923828 8.70056819915771 8.42949199676514 8.15912055969238 7.92199277877808 7.69488477706909 7.47991704940796 7.26989555358887 7.0859169960022 6.90834283828735 6.76748371124268 6.66360664367676 6.58879852294922 6.51958036422729 6.43433666229248 6.33771371841431 6.23551893234253 6.13152647018433 6.02527761459351 5.89746952056885 5.47000503540039 11.6067800521851 6.0848970413208 5.37443161010742 5.25541830062866 4.71206378936768 6.90323734283447 10.8033103942871 6.26821613311768 5.82008504867554 4.71316909790039 3.94777750968933 3.3890528678894 3.25843501091003 2.63734292984009 2.4229838848114 2.36422657966614 2.31315851211548 2.2584707736969 1.83982527256012 1.55527687072754 1.44420790672302 1.34847033023834 1.10141837596893 1.0849472284317 1.05644655227661 1.91847026348114 1.00293934345245 0.430051624774933 -0.0358943529427052 38.1832809448242 21.5283679962158 12.813684463501 9.64220809936523 6.60576963424683 11.8567276000977 6.4657187461853 5.77862358093262 5.16593265533447 4.65340328216553 4.23548603057861 3.89316034317017 3.60158586502075 3.34162712097168 3.12377309799194 2.93189525604248 2.75570058822632 2.60612034797668 2.45953798294067 2.33812046051025 2.21771550178528 2.04268097877502 1.96568822860718 1.88319039344788 1.80805957317352 1.73589420318604 1.66995370388031 1.60796642303467 1.54667448997498 1.49499464035034 1.4456262588501 1.40672826766968 1.36262512207031 1.31861293315887 1.28374886512756 1.24657738208771 1.21047580242157 1.17717611789703
25.7404937744141 21.186580657959 20.2570648193359 9.13088130950928 8.07986736297607 6.43934106826782 6.08159685134888 25.9840545654297 5.59917497634888 4.21417427062988 3.37214970588684 2.39974999427795 1.0223001241684 0.0126137109473348 -0.852544844150543 -1.11149942874908 -1.52001249790192 0.587758123874664 -1.44379305839539 12.9611825942993 9.20653820037842 6.82394886016846 2.47332286834717 -1.76691830158234 12.4482202529907 3.51771354675293 -1.7802312374115 7.14366292953491 -1.56492340564728 6.82070255279541 3.62300753593445 1.7164865732193 12.0317716598511 16.1297702789307 6.94571447372437 2.63231801986694 1.53559076786041 4.37256622314453 7.99645042419434 1.14230585098267 0.2538241147995 6.88766002655029 1.00889492034912 7.84652614593506 0.218896597623825 2.95414638519287 9.48619365692139 19.2396335601807 10.8500642776489 6.6643443107605 9.97855472564697 16.5596866607666 9.12363815307617 6.79330492019653 4.24431371688843 23.4801616668701 13.8207626342773 13.9549751281738 7.57499122619629 4.38317108154297 3.78891563415527 3.16777372360229 7.54446506500244 12.3314161300659 2.35385394096375 4.83706283569336 11.4633083343506 40.7219047546387 21.10080909729 14.8433723449707 27.4872856140137 35.8448181152344 25.6300582885742 17.4372806549072 23.7184638977051 14.1098966598511 13.5641279220581 11.6531791687012 27.3840198516846 14.3848276138306 11.1851062774658 10.4821510314941 9.9244966506958 9.46414947509766 9.0788516998291 8.75946044921875 8.45421123504639 8.17952728271484 7.90178632736206 7.66157579421997 7.43753576278687 7.22969532012939 7.01514720916748 6.8143162727356 6.61944532394409 6.44759130477905 6.29666328430176 6.18265295028687 6.10706806182861 6.04862928390503 5.97643327713013 5.89739370346069 5.81271982192993 5.73026132583618 5.64018678665161 5.02604055404663 17.2415046691895 11.0767755508423 7.46445751190186 5.59519052505493 4.96685600280762 4.85769462585449 4.54271221160889 4.31816720962524 3.52349829673767 10.5741262435913 5.54454231262207 3.81907773017883 2.90973281860352 2.37381553649902 2.09934639930725 1.95845794677734 1.91222703456879 1.86938118934631 1.82753300666809 1.32642841339111 1.2981675863266 1.26395392417908 1.17688131332397 1.11692202091217 0.880026042461395 9.91049861907959 1.07860803604126 9.9193000793457 0.497581541538239 9.26106643676758 0.199614122509956 21.6622047424316 11.8842792510986 8.30221748352051 4.55485582351685 12.9904413223267 6.66014242172241 4.66611623764038 4.08016729354858 3.63934707641602 3.29543328285217 3.0011625289917 2.74112629890442 2.52740335464478 2.34940266609192 2.19621133804321 2.04928922653198 1.93045246601105 1.82719922065735 1.72918164730072 1.59902811050415 1.47427487373352 1.42709541320801 1.36854195594788 1.31109654903412 1.25461411476135 1.20359718799591 1.15933835506439 1.11433529853821 1.06905460357666 1.03814685344696 1.00763952732086 0.971449375152588 0.943183541297913 0.916973173618317 0.890474259853363 0.864129602909088 0.840985238552094
14.5381412506104 12.3841524124146 11.3304042816162 9.23812103271484 10.3807697296143 7.46458148956299 18.3650646209717 8.99295330047607 4.6587119102478 3.92299628257751 2.86804413795471 2.1006190776825 0.507772743701935 -0.613412618637085 -0.939500570297241 -1.65793132781982 -1.90533041954041 -1.49472367763519 -1.97031879425049 -2.21248555183411 6.22597455978394 21.0434188842773 9.64653873443604 13.5538921356201 2.18688416481018 7.42661619186401 -0.285709530115128 10.136812210083 8.64890193939209 5.7056770324707 4.50458908081055 0.151069223880768 8.58498287200928 7.47300624847412 4.76371765136719 1.27036821842194 3.74315524101257 0.951116621494293 23.3648090362549 0.649056732654572 1.07994902133942 -0.185370326042175 7.83382272720337 1.85990631580353 -0.432096242904663 -0.622897565364838 -0.634321987628937 17.1989688873291 13.9804573059082 11.8813638687134 11.5311450958252 9.0088062286377 8.28550624847412 14.5344839096069 18.1133995056152 10.8428554534912 15.1667003631592 9.08893394470215 9.43609619140625 7.13176584243774 4.80967569351196 28.1647071838379 6.45848083496094 40.6435699462891 3.73649740219116 2.96523547172546 7.01002597808838 40.1028060913086 32.9147453308105 29.6324996948242 29.1671905517578 25.8931636810303 23.533504486084 19.8596363067627 16.881555557251 16.2781410217285 20.838508605957 15.3914422988892 14.1745252609253 13.0879011154175 12.1040048599243 11.3260936737061 10.7076263427734 10.1536378860474 9.67857074737549 9.28701496124268 8.94965648651123 8.64055156707764 8.36653995513916 8.09881019592285 7.83528518676758 7.59235525131226 7.35811138153076 7.12157011032104 6.90927982330322 6.72377920150757 6.56557083129883 6.42013168334961 6.31238317489624 6.22540330886841 6.133873462677 6.04973697662354 5.96958827972412 5.88938760757446 5.81086874008179 5.71811866760254 5.60807466506958 5.2848482131958 9.59367275238037 5.27075576782227 5.15333414077759 4.99250364303589 4.94583606719971 4.8029670715332 3.78526329994202 3.2558958530426 2.76493048667908 2.1293261051178 2.03367066383362 1.99488258361816 1.95456254482269 1.91416716575623 1.67100155353546 1.365926861763 1.33135807514191 1.29859042167664 1.26581597328186 1.23684418201447 0.859695136547089 0.781971991062164 0.698113858699799 16.8519897460938 8.63872718811035 5.79501247406006 4.91138935089111 0.392560392618179 14.5673112869263 0.321466952562332 1.82086157798767 2.50041079521179 5.13569974899292 13.5262956619263 6.8245153427124 4.85515737533569 3.90596532821655 3.26365566253662 2.83566975593567 2.50807189941406 2.25080227851868 2.05589556694031 1.88828659057617 1.73431754112244 1.62333989143372 1.5236930847168 1.42758512496948 1.34118497371674 1.1809024810791 1.14820039272308 1.08841049671173 1.04171991348267 0.995425343513489 0.950455904006958 0.911075234413147 0.874617040157318 0.840419709682465 0.808483064174652 0.781400442123413 0.757695078849792 0.732770979404449 0.708803355693817 0.6871138215065 0.667427897453308 0.645816922187805 0.628058075904846
18.2546730041504 17.3393096923828 13.9541883468628 11.7417268753052 9.96607685089111 8.55972766876221 7.7203803062439 7.18328666687012 4.71833610534668 4.57824850082397 3.69040775299072 1.47531247138977 -0.329477727413177 -1.05801486968994 5.87255096435547 -1.8631500005722 -0.502918481826782 -2.00687146186829 -2.463458776474 -2.61385083198547 -2.70606136322021 26.849573135376 26.7612171173096 19.0473289489746 11.4470977783203 6.86342239379883 2.75323271751404 2.1843900680542 2.40355324745178 8.80004024505615 1.91169893741608 19.4700412750244 8.88794231414795 2.18834781646729 2.0687108039856 1.77507781982422 3.8522036075592 0.917722463607788 0.677638530731201 4.99719047546387 1.48396110534668 1.22341239452362 3.41232752799988 0.0343348234891891 -0.210967421531677 6.26652431488037 13.5217571258545 7.94911670684814 7.84027719497681 11.6462821960449 7.35465002059937 6.54969215393066 5.54201221466064 21.0622234344482 33.8229484558105 20.3376483917236 14.1989974975586 7.29114866256714 9.38506412506104 5.21238374710083 4.75664091110229 4.75371503829956 6.56098699569702 19.035472869873 22.3735427856445 10.6579465866089 7.33252143859863 6.97924852371216 27.3867721557617 31.156120300293 24.8712959289551 21.1957378387451 17.5333518981934 13.2536239624023 11.5593729019165 28.2591209411621 15.7198429107666 11.3943319320679 10.4315357208252 9.5171365737915 8.77155685424805 8.18564987182617 7.70452642440796 7.283278465271 6.91638565063477 6.66874074935913 6.47397089004517 6.34763050079346 6.24062824249268 6.10549259185791 5.95582628250122 5.80171346664429 5.65852928161621 5.50935983657837 5.37081289291382 5.2524094581604 5.14788341522217 5.0625205039978 4.98807716369629 4.92899417877197 4.87000179290771 4.82371425628662 4.78037595748901 4.74034261703491 4.67065382003784 4.61884880065918 4.56244087219238 4.48682737350464 4.33460855484009 3.99585890769958 13.257396697998 6.84273338317871 4.55006742477417 3.66566801071167 3.54685354232788 2.93304467201233 2.23043584823608 2.02251100540161 1.99091851711273 1.95468664169312 1.91131412982941 1.87224864959717 1.38608515262604 1.35333359241486 1.32031464576721 1.28570282459259 1.24755537509918 0.704815447330475 6.48360157012939 1.18698394298553 2.85161304473877 13.5534505844116 6.04642152786255 4.00079774856567 3.26722741127014 2.7709653377533 0.621650636196136 0.141165018081665 14.486273765564 10.3418111801147 9.9965934753418 7.58638381958008 6.08688449859619 5.19018936157227 4.47798919677734 3.91722702980042 3.48566293716431 3.13398289680481 2.85028314590454 2.61915850639343 2.41612124443054 2.25172090530396 2.10118532180786 1.96770584583282 1.85051155090332 1.69114291667938 1.56843113899231 1.51200342178345 1.44165313243866 1.37650728225708 1.31777286529541 1.26049506664276 1.21020197868347 1.15974771976471 1.11480748653412 1.07516884803772 1.03730225563049 0.998645842075348 0.973465859889984 0.937643468379974 0.910482585430145 0.883617222309113 0.858138799667358 0.834446132183075
15.0298852920532 13.955982208252 11.6500949859619 10.0539169311523 9.14128494262695 8.26434898376465 7.57383108139038 7.00738048553467 3.12444972991943 4.1140923500061 3.04555296897888 1.60231280326843 -0.124049603939056 -1.37115406990051 -1.82990157604218 -2.47900414466858 3.81965804100037 -2.60549736022949 -2.76517367362976 -2.83793020248413 4.4403018951416 6.15284442901611 13.7767114639282 6.43042516708374 4.08438587188721 3.29994583129883 1.16282796859741 4.75001907348633 -0.735723316669464 4.81666326522827 13.2205038070679 8.93067646026611 4.23832130432129 2.77813386917114 1.41366791725159 6.91123676300049 -0.443068951368332 14.5187540054321 0.401081293821335 23.9591369628906 5.01375913619995 2.49261832237244 1.15118277072906 0.244137585163116 -0.502310633659363 8.80416011810303 -0.641259968280792 12.8889427185059 11.6816005706787 9.95899486541748 7.01162195205688 13.5454072952271 25.6590213775635 21.5876884460449 14.6687717437744 28.3482780456543 11.5908584594727 10.1679401397705 5.41950178146362 3.54331874847412 5.98412799835205 30.2831859588623 20.6230278015137 23.7772521972656 14.0122718811035 10.6692361831665 10.3504676818848 9.86532783508301 33.333984375 25.2692356109619 15.6103982925415 33.7515144348145 14.5848245620728 29.6609210968018 16.6554737091064 13.503098487854 12.1362209320068 11.0701389312744 10.1718263626099 9.51098251342773 9.06209564208984 8.66342544555664 8.26925468444824 7.93568181991577 7.66186571121216 7.36832046508789 7.11754989624023 6.96255540847778 6.85092639923096 6.72592973709106 6.57911348342896 6.41748142242432 6.24190521240234 6.08133316040039 5.92815065383911 5.79473733901978 5.68022060394287 5.58001852035522 5.50313138961792 5.44291687011719 5.38224458694458 5.32912635803223 5.27938413619995 5.18712282180786 5.10418033599854 5.02890110015869 4.96425151824951 4.86853170394897 4.17793416976929 4.01767015457153 3.93415999412537 3.8578634262085 3.77258634567261 3.59190964698792 3.45387959480286 2.66529393196106 2.50699830055237 2.47426867485046 1.96507394313812 1.93462753295898 1.4494012594223 1.40539515018463 1.37307298183441 1.34671652317047 1.31632721424103 1.28101718425751 1.23749995231628 0.751282632350922 3.16059136390686 0.924280762672424 1.73993372917175 11.6391382217407 4.97823762893677 3.19827604293823 1.07528650760651 0.528435885906219 15.8203048706055 0.238465577363968 0.107414215803146 3.36016082763672 24.4781761169434 12.8593521118164 8.66127109527588 6.63072967529297 5.34539651870728 4.49443387985229 3.8518762588501 3.3602602481842 3.02876806259155 2.73764324188232 2.51109743118286 2.33410668373108 2.17168784141541 2.01964449882507 1.88476574420929 1.66975224018097 1.6289256811142 1.54230928421021 1.46578121185303 1.39622819423676 1.32885158061981 1.27174663543701 1.21835136413574 1.16894674301147 1.12061512470245 1.07542324066162 1.03470087051392 1.00159013271332 0.972347736358643 0.937509775161743 0.907622635364532 0.877966344356537 0.855700552463531 0.832481145858765
20.2747955322266 15.1893625259399 10.5915403366089 8.3931941986084 7.87161874771118 7.21633720397949 6.84287881851196 6.50594520568848 3.59869861602783 13.419903755188 3.41853618621826 3.07488369941711 1.40531980991364 -0.811652600765228 -1.47916281223297 -2.04162311553955 -2.32738661766052 -2.4586923122406 -2.64735150337219 -2.74498414993286 -2.91906476020813 9.77427387237549 2.43234443664551 16.4239120483398 13.2044477462769 22.2354106903076 14.6053171157837 7.32676935195923 4.40678739547729 1.68976616859436 8.07307147979736 3.87235927581787 15.6197576522827 1.75126540660858 17.636775970459 3.42901277542114 0.515706360340118 3.23338437080383 1.60568761825562 0.822957515716553 10.9859504699707 0.217168271541595 3.05533146858215 1.29401338100433 0.128700584173203 2.53585648536682 7.11410522460938 7.56899929046631 5.98796892166138 8.88968372344971 8.47412490844727 7.59871292114258 25.2642955780029 15.2992792129517 24.1833400726318 18.9504680633545 9.70433330535889 6.19614601135254 4.69545698165894 2.97623157501221 14.8549165725708 12.023078918457 15.0491962432861 13.683177947998 26.9203796386719 14.4443893432617 11.3485355377197 32.4459190368652 17.8977298736572 10.9467639923096 10.5813732147217 10.2524938583374 40.5578002929688 24.1098136901855 16.8642845153809 13.009105682373 10.6618385314941 9.89791679382324 9.43436717987061 8.98884296417236 8.55704975128174 8.18115711212158 7.85622453689575 7.55609607696533 7.27588701248169 7.00493478775024 6.75313854217529 6.57983684539795 6.46644401550293 6.37208127975464 6.26087379455566 6.1275463104248 5.97450733184814 5.81497573852539 5.67412042617798 5.54407644271851 5.43901348114014 5.34298896789551 5.27610445022583 5.23259830474854 5.18672657012939 5.14425611495972 5.05994987487793 4.97768402099609 4.89073610305786 4.81260681152344 4.74642133712769 4.44777393341064 4.27390336990356 3.96739482879639 3.70886850357056 3.25083780288696 3.19256043434143 3.12896704673767 2.60089182853699 2.55435371398926 2.51543807983398 2.38667011260986 2.26040816307068 1.44649600982666 1.4082407951355 1.37745356559753 1.34112179279327 1.3146116733551 1.28713500499725 1.2553573846817 0.941266417503357 0.733048141002655 1.42036914825439 7.91604232788086 1.33681428432465 4.24814128875732 6.31984806060791 2.6034848690033 1.01421964168549 0.592043817043304 13.716362953186 1.01138043403625 0.297382831573486 18.5458679199219 9.72025394439697 6.53249979019165 4.90494775772095 3.96788907051086 3.33988833427429 2.88707375526428 2.50631785392761 2.23954200744629 2.02560758590698 1.82702887058258 1.67440760135651 1.55858218669891 1.45492649078369 1.3460510969162 1.21946668624878 1.11043465137482 1.08548259735107 1.02715849876404 0.973163425922394 0.926605582237244 0.879595398902893 0.842013299465179 0.808396100997925 0.772651493549347 0.743854701519012 0.715718626976013 0.689666092395782 0.667637348175049 0.644072115421295 0.62596732378006 0.604831874370575 0.584054172039032 0.563925266265869 0.546762347221375
35.1657752990723 20.7439632415771 14.1577043533325 10.8172903060913 8.74638652801514 7.14750671386719 6.57542324066162 6.23293209075928 2.85152649879456 2.43457412719727 20.045503616333 5.74558734893799 0.59301370382309 -1.60719799995422 6.87173414230347 -2.03782248497009 -2.51282477378845 -3.27026438713074 7.45330190658569 2.17064142227173 0.598337411880493 13.9127569198608 3.32678771018982 8.47421360015869 17.9013500213623 24.3861503601074 9.23630142211914 6.89672994613647 6.06459808349609 2.05382037162781 1.71714222431183 12.3384304046631 5.55519342422485 2.50635457038879 1.57691168785095 1.17191231250763 0.561227440834045 1.12508261203766 1.26583790779114 1.39631140232086 0.740136861801147 0.323822200298309 2.61778402328491 16.1644039154053 6.89092350006104 2.53678488731384 15.5221366882324 12.473596572876 11.3595476150513 10.7523994445801 10.7271585464478 10.4337291717529 12.0670680999756 9.67782497406006 10.0389223098755 9.53807735443115 5.62156915664673 27.9814949035645 5.49201679229736 3.32871317863464 19.6274166107178 14.1552381515503 11.1438407897949 18.0262393951416 10.7269592285156 26.7661266326904 9.93776607513428 19.8168849945068 9.63760471343994 8.49548244476318 8.73228168487549 34.3805465698242 8.12927055358887 41.4985656738281 24.060791015625 16.8370933532715 13.1741628646851 10.8382406234741 9.06816291809082 7.99875259399414 7.67468357086182 7.3444504737854 7.02908325195312 6.74295425415039 6.49987268447876 6.26719570159912 6.05120944976807 5.86583518981934 5.74928951263428 5.66789627075195 5.59105110168457 5.48939085006714 5.36688232421875 5.23445177078247 5.10227108001709 4.98703289031982 4.89761829376221 4.83407974243164 4.77857446670532 4.73964643478394 4.69860887527466 4.64583921432495 4.57623291015625 4.50386476516724 4.43109607696533 4.36129331588745 4.28478288650513 3.8679473400116 3.71057868003845 3.62725377082825 3.27971076965332 3.21701169013977 2.9419162273407 2.89033079147339 2.69058799743652 2.63850951194763 2.59878873825073 2.42991662025452 2.23226094245911 2.18606019020081 1.35842895507812 1.31697082519531 1.28993678092957 1.2653546333313 1.23839282989502 0.702407598495483 0.562282681465149 21.7664909362793 4.68666791915894 0.974818885326385 0.528030157089233 2.50022530555725 2.85158586502075 0.791073262691498 0.769972085952759 15.4475040435791 4.76935386657715 0.610134541988373 0.427981585264206 17.5237045288086 9.07237911224365 6.19489336013794 4.66491222381592 3.7178955078125 3.0990686416626 2.68131971359253 2.3463191986084 2.08974814414978 1.88351500034332 1.71107947826385 1.56667339801788 1.45548701286316 1.3553786277771 1.2558159828186 1.09530854225159 1.08028090000153 0.933681607246399 1.65176498889923 0.927089929580688 0.88467401266098 0.834903597831726 0.796482980251312 0.767850577831268 0.739016056060791 0.711389660835266 0.683332562446594 0.658125638961792 0.634072840213776 0.613470077514648 0.594628155231476 0.574368953704834 0.557051420211792 0.538785576820374 0.520967900753021
38.4007148742676 23.730640411377 18.2822647094727 15.0231666564941 12.382435798645 10.5335168838501 9.18790626525879 8.10957908630371 3.28950929641724 3.11181592941284 2.01425552368164 1.95894241333008 1.65919625759125 0.616199135780334 -1.24392533302307 -2.05414128303528 -2.60842275619507 2.71116614341736 -3.13981652259827 -3.23267865180969 8.30232238769531 4.91671848297119 3.70551753044128 5.12743377685547 28.7622375488281 16.7061176300049 21.87380027771 11.646692276001 8.70997524261475 6.5892186164856 3.26379609107971 2.60654306411743 7.19850730895996 20.4940357208252 13.8728590011597 1.36278164386749 0.224628821015358 23.9479427337646 11.7596092224121 5.06259250640869 2.9033031463623 9.97075366973877 9.21085071563721 6.62612342834473 8.40634059906006 6.28337860107422 11.8944845199585 5.7566089630127 9.1910572052002 12.5950870513916 5.35646486282349 19.5005950927734 18.461088180542 7.62661695480347 15.7094326019287 3.97479128837585 36.8884353637695 17.5456447601318 11.1980333328247 10.8081321716309 6.58931684494019 5.85724067687988 5.02903699874878 23.2462902069092 14.6630544662476 25.6468639373779 6.98169994354248 7.45895862579346 15.5718488693237 19.4444713592529 11.2291316986084 34.8610916137695 19.9249477386475 13.9147663116455 10.9250354766846 9.63019371032715 8.57460308074951 7.72377824783325 7.114914894104 6.72451400756836 6.38000583648682 6.04471063613892 5.74205875396729 5.48011684417725 5.28221702575684 5.07532644271851 4.92102241516113 4.80003452301025 4.70508098602295 4.64464950561523 4.58611106872559 4.52891492843628 4.45767593383789 4.37251281738281 4.27587652206421 4.18989086151123 4.1336612701416 4.09343957901001 4.07257890701294 4.04041528701782 4.00439405441284 3.9582211971283 3.9101619720459 3.65424728393555 3.59549784660339 3.53001809120178 3.45916318893433 3.40552234649658 3.35120487213135 3.30242133140564 2.91379022598267 2.86742448806763 2.81189584732056 2.75470232963562 2.60243320465088 2.27359771728516 1.94875717163086 1.92255115509033 1.35154950618744 1.31927824020386 1.2785427570343 1.24693298339844 1.21706986427307 1.1837055683136 1.17145013809204 0.598407983779907 2.57335329055786 0.474397629499435 10.9877223968506 13.6438522338867 1.65086686611176 0.884627044200897 11.2784576416016 5.49120426177979 3.50582265853882 0.896115362644196 14.9266109466553 8.57779312133789 5.75863027572632 4.32990646362305 3.43378019332886 2.87039470672607 2.51204752922058 2.18142175674438 1.92470026016235 1.72666966915131 1.56790089607239 1.46172142028809 1.35255193710327 1.27241718769073 1.19654822349548 1.12615764141083 1.04191827774048 0.956659078598022 0.887452125549316 0.696112990379333 2.34909844398499 1.58769166469574 2.14848017692566 1.3207471370697 1.04210257530212 0.878461062908173 0.741004168987274 0.68645316362381 0.668885111808777 0.650480687618256 0.633492767810822 0.616965591907501 0.602105677127838 0.587602019309998 0.572458207607269 0.560874104499817 0.545224487781525 0.530914127826691
39.5048522949219 23.0130558013916 16.0369968414307 12.4079370498657 9.63259124755859 7.93748760223389 6.74841356277466 6.03402757644653 2.44678807258606 2.27476859092712 0.77998024225235 4.25126838684082 13.0686187744141 -0.722808480262756 -1.63182055950165 -2.22468876838684 -2.69478058815002 -3.09548211097717 5.96152400970459 -3.13013386726379 1.02364897727966 -3.42971611022949 19.3931407928467 14.6590137481689 35.0782585144043 19.1856861114502 17.936243057251 7.84694194793701 14.070200920105 6.78072166442871 4.3703784942627 20.2186546325684 4.99775981903076 36.39794921875 3.862224817276 3.0702850818634 1.13240790367126 10.4194936752319 1.08972311019897 0.850631177425385 7.61624956130981 2.5426652431488 15.3037195205688 8.33448219299316 14.264310836792 14.9211750030518 9.56733131408691 8.40057945251465 11.4551420211792 23.589822769165 7.56156015396118 15.5454139709473 10.9606618881226 9.76312637329102 7.69086074829102 11.7326507568359 5.63132429122925 32.6475563049316 16.2413787841797 12.23131275177 10.3068523406982 8.69551658630371 7.77424478530884 7.6235179901123 5.48867702484131 6.62602663040161 4.8738956451416 6.03330135345459 25.7051181793213 14.7666807174683 37.8750152587891 21.8390598297119 15.3768625259399 12.7401132583618 10.9509315490723 9.51699638366699 8.36352157592773 7.61809730529785 6.99601221084595 6.4474310874939 5.96334218978882 5.56093311309814 5.23031234741211 4.9729175567627 4.82587337493896 4.73389768600464 4.65579891204834 4.5781192779541 4.50825643539429 4.2765097618103 4.22891139984131 3.96695971488953 3.7823474407196 3.73265910148621 3.65268778800964 3.54717016220093 3.50931406021118 3.49624514579773 3.47677969932556 3.44143176078796 3.40529489517212 3.36940312385559 3.33084654808044 3.2839629650116 3.10537981987 3.04608416557312 2.99338626861572 2.93482279777527 2.88685894012451 2.84008598327637 2.79248285293579 2.7523365020752 2.70716857910156 2.66078186035156 2.53941893577576 1.96707856655121 1.9249941110611 1.28763794898987 1.26102340221405 1.23107671737671 1.19675660133362 1.16486608982086 1.13229095935822 1.11397778987885 0.982871174812317 2.86468887329102 0.294644743204117 0.175668463110924 5.43987798690796 26.7252540588379 8.67472267150879 14.4586305618286 5.44167184829712 4.5255446434021 3.80593752861023 3.29398918151855 2.27444529533386 16.0872669219971 8.20259666442871 5.46653699874878 4.14535331726074 3.30451965332031 2.73879408836365 2.32929944992065 2.2213122844696 2.1127233505249 2.02161312103271 1.84675741195679 1.76814568042755 1.69991421699524 1.63357222080231 1.55309176445007 1.48506498336792 1.38760602474213 1.36519289016724 0.879209041595459 0.857646584510803 1.58493173122406 7.22495651245117 4.39133834838867 3.64436531066895 2.71470856666565 2.18683290481567 1.79822158813477 1.52658820152283 1.38756334781647 1.24676704406738 1.12686896324158 1.03121256828308 0.957972526550293 0.887571215629578 0.847536563873291 0.824233591556549 0.798026502132416
21.1858787536621 14.8890047073364 11.5424451828003 9.33668804168701 8.03673267364502 7.50151586532593 7.0443377494812 6.64321136474609 4.11341762542725 3.74280261993408 1.88910341262817 1.22102355957031 0.827309191226959 0.810989916324615 0.670369446277618 -0.840299189090729 -1.74866104125977 -1.91104733943939 -2.60245561599731 10.3963994979858 0.686548709869385 -2.97432661056519 11.4022941589355 35.5322647094727 25.1181735992432 26.1075668334961 12.5544061660767 11.8421001434326 9.74131298065186 7.47211694717407 7.225745677948 8.4819164276123 25.7939033508301 7.17954730987549 6.5763955116272 5.10220384597778 3.71790242195129 1.48520886898041 0.574564218521118 5.70261335372925 3.09338879585266 0.195459857583046 17.4280033111572 22.5263595581055 16.590612411499 28.1756706237793 19.0521354675293 14.52463722229 11.1429624557495 9.75165462493896 15.3107957839966 10.3684492111206 9.05986499786377 8.3319034576416 6.67127323150635 24.0263385772705 23.8225173950195 14.7078723907471 11.9201059341431 9.26014995574951 7.97248315811157 7.54623413085938 7.0864896774292 5.78282976150513 21.3854522705078 7.07167339324951 5.73057794570923 15.8900995254517 25.9521865844727 17.7107353210449 20.7996253967285 14.691330909729 12.3403511047363 10.5419387817383 9.16332817077637 7.99681615829468 7.129554271698 6.48662900924683 5.97165393829346 5.67035865783691 5.52608585357666 5.38279819488525 5.26672124862671 5.17813968658447 5.08230113983154 4.98707389831543 4.90362405776978 4.82343912124634 4.74300765991211 4.38359022140503 3.91072559356689 3.79086136817932 3.73603200912476 3.67757844924927 3.61967325210571 3.56991338729858 3.5347318649292 3.50583624839783 3.45074558258057 3.40977048873901 3.37625026702881 3.34638118743896 3.02573680877686 2.98713541030884 2.94244718551636 2.90240025520325 2.85405874252319 2.80751204490662 2.76058459281921 2.71207499504089 2.6675009727478 2.4488890171051 2.41914248466492 2.38257813453674 2.03910851478577 1.47012007236481 1.30044734477997 1.20487797260284 1.18557047843933 1.15076947212219 1.12433052062988 1.10211825370789 1.07616376876831 1.03792595863342 0.998224139213562 0.98699939250946 0.976268649101257 0.964492201805115 0.952442109584808 0.917644381523132 0.866018295288086 0.2525335252285 20.0264415740967 14.6943988800049 6.52394104003906 4.84526205062866 3.83732914924622 10.5385494232178 5.34276151657104 3.72237181663513 3.30305004119873 2.9475736618042 2.67674875259399 2.45827221870422 2.24555468559265 2.04622077941895 1.91255247592926 1.87329757213593 1.74335098266602 1.65739870071411 1.57221937179565 1.46196031570435 1.39660799503326 1.29464602470398 1.25857031345367 1.20807266235352 1.16956353187561 0.69122040271759 6.95186853408813 4.07486963272095 0.656043767929077 0.644708931446075 8.24011325836182 4.14700889587402 2.89238691329956 2.16130828857422 0.512387692928314 11.4762086868286 5.74549531936646 3.94966912269592 2.91242647171021 2.30061364173889 1.89710903167725 1.58253121376038
15.4071207046509 10.9017791748047 8.5141716003418 6.95510244369507 6.17983198165894 5.77115392684937 5.42892122268677 5.12825727462769 4.76404571533203 2.37357449531555 0.969415247440338 0.107433035969734 -0.865317821502686 14.1827144622803 -1.71932005882263 -2.41243696212769 2.14463901519775 -2.96331977844238 -2.99837255477905 -3.04961109161377 -3.70497989654541 8.62955379486084 15.0077743530273 15.544713973999 31.4280166625977 18.591344833374 8.70833015441895 13.9412021636963 7.45265960693359 11.5512847900391 6.38586759567261 21.9459228515625 16.4555816650391 5.38231754302979 5.25280809402466 3.66106653213501 2.85320544242859 1.15395271778107 6.48128461837769 0.336198180913925 6.34357357025146 2.73832440376282 38.0913848876953 17.9250240325928 20.0665626525879 22.2414073944092 16.1986198425293 9.73103046417236 9.56480312347412 8.66259765625 5.98361492156982 24.9319686889648 11.4952020645142 14.9056329727173 8.62689208984375 5.78620147705078 6.20548105239868 17.8460540771484 13.235668182373 5.42164325714111 4.97850513458252 21.5594043731689 17.4263858795166 13.3459787368774 25.7167453765869 7.63169097900391 7.48225784301758 15.017689704895 11.8133478164673 31.620922088623 17.9368000030518 12.0586633682251 9.86610698699951 8.37519073486328 7.2924165725708 6.68732118606567 6.20499467849731 5.82725858688354 5.49151277542114 5.22115182876587 4.98459672927856 4.85251188278198 4.75323295593262 4.68314647674561 4.60378074645996 4.51540565490723 4.43877458572388 4.36329507827759 4.29207897186279 3.81745457649231 3.74522233009338 3.68437719345093 3.62745499610901 3.57472848892212 3.53411960601807 3.49477791786194 3.44640493392944 3.39373230934143 3.14928722381592 3.09884715080261 3.0711350440979 3.04277729988098 3.01232075691223 2.97663044929504 2.9448606967926 2.90929079055786 2.8634295463562 2.82186245918274 2.35699200630188 2.16756749153137 2.13506531715393 2.1064281463623 2.08677959442139 1.95692813396454 1.65232455730438 1.47155475616455 1.22361993789673 1.14093446731567 1.11160457134247 1.08288502693176 1.06658840179443 1.04690039157867 1.01736927032471 0.991372287273407 0.954269349575043 0.940584719181061 0.918714284896851 0.903702974319458 0.882187902927399 0.864205360412598 0.842337369918823 0.348614662885666 0.179577350616455 20.5913906097412 10.4474544525146 10.1714935302734 7.68152046203613 6.16821575164795 5.1637282371521 4.3611536026001 3.86502504348755 3.41374325752258 3.05670976638794 2.8104465007782 2.55414056777954 2.32767939567566 2.14474821090698 2.07521438598633 1.90409743785858 1.80758321285248 1.68340659141541 1.65037846565247 1.52433848381042 1.49793136119843 1.3733971118927 1.29271447658539 1.24051785469055 1.20388507843018 1.1672774553299 1.13076436519623 0.87664783000946 0.858728051185608 0.826574206352234 2.30447006225586 1.25784909725189 0.911998212337494 0.286399573087692 4.97793674468994 1.61940944194794 10.5751638412476 8.66387176513672 5.76967096328735 4.30118989944458 3.36650896072388
10.9048738479614 8.17303466796875 7.67721796035767 7.21924161911011 6.61326313018799 6.16541957855225 5.82185506820679 5.51344156265259 5.16572570800781 2.26566529273987 0.0223331563174725 5.2917218208313 1.01385080814362 -1.10361564159393 4.86329889297485 -1.35023856163025 -1.57232248783112 -2.76543784141541 -3.50260949134827 0.0501827523112297 -2.24017071723938 4.98573732376099 9.1762113571167 33.6035842895508 20.0798110961914 15.4437494277954 4.74709224700928 17.5032634735107 14.7272291183472 7.36288499832153 27.2686862945557 11.7770433425903 6.10247993469238 5.55243587493896 3.55314946174622 2.43694257736206 1.45490407943726 0.992704153060913 -0.443670213222504 4.37045288085938 5.38518142700195 6.81103801727295 9.96574401855469 11.0780925750732 26.2644214630127 22.4299907684326 10.5553026199341 8.98839378356934 5.10238933563232 3.35981464385986 22.579833984375 14.0353536605835 10.5231065750122 9.39294338226318 11.977611541748 6.65267038345337 24.8134326934814 10.4526290893555 31.2566356658936 22.0395050048828 14.7002210617065 15.7967090606689 13.5713739395142 12.1039066314697 11.1162137985229 8.03917789459229 6.94205951690674 20.3209114074707 17.878791809082 16.3998489379883 12.5624570846558 9.9310417175293 8.05159664154053 6.80790710449219 6.41145086288452 6.12533521652222 5.86716175079346 5.63544130325317 5.42871952056885 5.23405885696411 5.08230972290039 4.94701147079468 4.81248235702515 4.72167444229126 4.62003374099731 4.51186561584473 4.40635824203491 4.3078761100769 4.22493839263916 4.14736557006836 4.06694459915161 3.98978638648987 3.91962933540344 3.86292958259583 3.8062117099762 3.73690533638 3.68172311782837 3.19944334030151 3.14541363716125 3.09788799285889 3.0628674030304 3.0393168926239 3.01100373268127 2.65517425537109 2.6340184211731 1.92201232910156 1.76554930210114 1.74288213253021 1.71935725212097 1.69702768325806 1.66762638092041 1.65695202350616 1.63862419128418 1.62840640544891 1.19650495052338 1.1581859588623 1.08701026439667 1.53247916698456 1.06508421897888 1.0319709777832 1.01321494579315 0.983569324016571 0.954879283905029 0.935551822185516 0.904145419597626 0.87688684463501 0.856917440891266 0.821138024330139 0.771559536457062 0.74088454246521 0.991125524044037 1.62325179576874 3.19268727302551 0.290749132633209 4.38653802871704 18.7767181396484 9.68194198608398 6.47664356231689 4.90401124954224 3.94215822219849 3.43762254714966 2.99081039428711 2.64553737640381 2.3866069316864 2.18085479736328 1.96899163722992 1.8187198638916 1.72267973423004 1.5488578081131 1.45923674106598 1.43926465511322 1.29126822948456 1.2109888792038 1.15616321563721 1.14303064346313 1.07612109184265 1.01671588420868 0.952059388160706 0.922055900096893 0.889267981052399 0.864794552326202 0.0347471199929714 9.47617244720459 8.09913158416748 5.44091606140137 1.64591372013092 1.24461269378662 0.975534498691559 0.84896045923233 2.13208889961243 13.8727426528931 6.96120166778564 4.59184265136719 3.35408234596252
11.0893955230713 8.81600284576416 7.38532972335815 6.5535454750061 5.42507886886597 4.61264133453369 4.17141723632812 3.87962627410889 3.53074312210083 1.3742401599884 -0.308951377868652 -0.915719568729401 -1.4872133731842 -2.12272596359253 13.578896522522 3.95769071578979 -2.45317625999451 -3.0313093662262 -3.83329844474792 14.8740739822388 18.8567237854004 5.4165096282959 4.30685567855835 30.359468460083 17.5630855560303 15.6190366744995 8.0340576171875 2.77059292793274 30.8407917022705 8.18184661865234 30.7395153045654 16.6745491027832 6.43780422210693 6.45229816436768 4.66247272491455 -0.318924427032471 22.2459106445312 16.4361915588379 2.16891813278198 7.65569639205933 1.37864089012146 4.42493057250977 9.34457206726074 21.5959320068359 12.6347875595093 9.74794864654541 25.6334915161133 6.30865335464478 3.77440309524536 0.925843298435211 8.76601314544678 17.1041984558105 29.7022476196289 22.8878688812256 10.9889211654663 9.01144504547119 10.6764688491821 10.4275484085083 8.21581935882568 35.4311637878418 28.9918899536133 22.5376052856445 18.4468784332275 12.6826467514038 19.7431221008301 9.50322818756104 9.16012954711914 26.9099903106689 15.3886547088623 10.4912595748901 8.68325138092041 8.05418682098389 7.6309700012207 7.19324111938477 6.84223461151123 6.54523038864136 6.28595066070557 6.03968286514282 5.81136417388916 5.60274219512939 5.4280800819397 5.29354000091553 5.16590595245361 5.04580116271973 4.92616033554077 4.80596494674683 4.68666458129883 4.57724666595459 4.48096895217896 4.39569520950317 4.31184768676758 4.2265739440918 4.1482400894165 4.07915496826172 3.98837375640869 3.91749000549316 3.85591840744019 3.68523931503296 3.33871936798096 2.96491670608521 2.9251971244812 2.90068578720093 2.86995315551758 2.67653489112854 2.56826496124268 2.54477906227112 1.70664858818054 1.46079742908478 1.37937533855438 1.31901800632477 1.27050077915192 1.26093101501465 1.25729286670685 1.21380174160004 1.2101913690567 1.19313967227936 1.15732312202454 1.14121329784393 1.0971519947052 1.05432677268982 1.01875960826874 0.984665513038635 0.962644815444946 0.913673162460327 0.88051962852478 0.845344841480255 0.802899181842804 0.749203205108643 0.673716247081757 0.612047970294952 0.596747934818268 2.15564179420471 3.42381310462952 3.61575269699097 0.34837681055069 19.4007987976074 9.81681346893311 6.72225856781006 5.07456350326538 4.04532194137573 3.3862738609314 2.92214179039001 2.54642224311829 2.25527000427246 2.01363301277161 1.83836555480957 1.72484302520752 1.52792024612427 1.46834802627563 1.37070989608765 1.23160445690155 1.1459082365036 1.10113334655762 1.02820003032684 0.957067310810089 0.917126536369324 0.89581024646759 0.886334240436554 0.843847811222076 0.803930103778839 0.73733252286911 0.486746311187744 0.0309703182429075 11.6553869247437 6.63552188873291 0.23343089222908 -0.10823967307806 13.1602907180786 -0.587723433971405 34.3036880493164 18.6694011688232 12.6799621582031 9.56674003601074 7.69480609893799
9.79970073699951 7.93028879165649 6.92329549789429 6.51167392730713 5.83226013183594 5.1973352432251 4.76271772384644 4.41866302490234 4.09251356124878 2.33443713188171 -0.421198666095734 -0.856395840644836 -2.65280222892761 -3.20179796218872 -3.27881860733032 -3.59449815750122 16.2690277099609 8.87554931640625 -4.08317089080811 -4.51426076889038 21.1720237731934 23.2248840332031 16.8966846466064 14.5566854476929 12.2886953353882 9.22743320465088 6.47216844558716 5.04357624053955 23.8338394165039 15.9748668670654 14.067253112793 11.1116285324097 7.09309530258179 5.3156623840332 3.76396441459656 2.81775951385498 2.31896615028381 1.85723543167114 4.66251373291016 1.18759346008301 0.690264284610748 6.06219387054443 13.5981502532959 11.3905401229858 16.3531837463379 12.6690845489502 9.22088146209717 4.04085493087769 0.635092258453369 0.611395120620728 0.549398124217987 15.8779401779175 13.6897268295288 31.0360221862793 11.672342300415 35.3229942321777 22.2127056121826 11.0114727020264 21.4467296600342 18.4589462280273 22.75954246521 16.9617500305176 10.4223012924194 9.62955474853516 11.7774753570557 29.43869972229 16.7407131195068 12.4048566818237 8.90493297576904 8.32516384124756 7.31456327438354 25.2137889862061 12.0235376358032 7.274085521698 6.87920475006104 6.56123113632202 6.29388904571533 6.04462385177612 5.80736589431763 5.59409046173096 5.41687297821045 5.26863479614258 5.13730430603027 5.01199722290039 4.87637376785278 4.75928497314453 4.64313077926636 4.51907062530518 4.41067314147949 4.31853008270264 4.24074602127075 4.15963983535767 4.07590389251709 3.98841524124146 3.90254807472229 3.82305884361267 3.75223255157471 3.68979811668396 3.36509132385254 3.14502191543579 2.81963467597961 2.79562091827393 2.26345348358154 2.24632215499878 2.22789025306702 1.78568542003632 1.5144602060318 1.37194156646729 1.41019022464752 1.36011135578156 1.34416902065277 1.19599413871765 1.34595537185669 1.23837995529175 1.32335960865021 1.21204459667206 1.19245314598083 1.14243566989899 1.11962604522705 1.07780945301056 1.02529942989349 0.996005535125732 0.958649456501007 0.927207052707672 0.890323400497437 0.86317253112793 0.801989436149597 0.742682874202728 0.652886152267456 0.574411332607269 0.532485067844391 1.10896122455597 2.23880672454834 4.2275071144104 4.12565183639526 3.38896608352661 2.50693273544312 1.99139547348022 1.77124714851379 1.5346223115921 1.38823592662811 1.27478516101837 1.16522610187531 1.10209691524506 1.01250040531158 0.943186700344086 0.900664687156677 0.813585579395294 0.749722242355347 0.704578280448914 0.670743823051453 0.652915060520172 0.623106002807617 0.590367019176483 0.534609019756317 0.516755342483521 0.499676614999771 0.46981742978096 0.447285354137421 0.432492077350616 1.18942952156067 0.310593158006668 -0.231320351362228 13.3107805252075 4.58146381378174 5.66250705718994 2.85962748527527 -0.805473804473877 35.5162124633789 21.1821575164795 14.441912651062 10.9803476333618 8.65890121459961 7.18186521530151
9.49887943267822 7.73557662963867 6.62090063095093 6.09879493713379 5.52410936355591 5.01857900619507 4.65104961395264 4.32987022399902 4.0068621635437 3.72177529335022 2.17923378944397 -1.41542840003967 -1.6323698759079 -2.41995429992676 -1.61190903186798 -3.6633358001709 36.8186111450195 10.0108852386475 -3.80438804626465 -4.19235277175903 2.90656900405884 15.1981019973755 24.7511653900146 12.0701580047607 30.0252113342285 6.78560209274292 6.79713296890259 3.63081049919128 25.8300151824951 21.4241504669189 15.2134599685669 11.0919179916382 9.40968608856201 3.69502735137939 2.678875207901 1.96134543418884 6.95417833328247 1.80109202861786 0.586754858493805 0.215614661574364 0.160185605287552 6.19359445571899 19.9113273620605 15.365611076355 14.7574968338013 12.2665252685547 4.58080053329468 1.45273208618164 0.450337886810303 -0.0140609005466104 3.53527688980103 1.33774995803833 13.7312631607056 32.2177963256836 22.0572643280029 33.6582527160645 21.5205612182617 14.2753238677979 28.6110305786133 20.3743553161621 17.5579357147217 13.2359619140625 10.8497009277344 41.5970726013184 24.8523063659668 18.2839450836182 8.75155925750732 7.99049663543701 13.8605241775513 8.64247035980225 6.86581993103027 36.765495300293 21.7504539489746 13.8464155197144 9.68087005615234 7.47181701660156 6.68252563476562 6.41499996185303 6.1598596572876 5.92193651199341 5.72304725646973 5.56365823745728 5.41329956054688 5.28058528900146 5.13918161392212 4.996750831604 4.87416744232178 4.74269342422485 4.6112322807312 4.50407123565674 4.41739940643311 4.32764673233032 4.23538732528687 4.13972616195679 4.04617118835449 3.95650362968445 3.86912941932678 3.796875 3.7428126335144 3.46246743202209 2.72781562805176 2.53908514976501 2.08245015144348 2.05972862243652 2.04194235801697 1.61903405189514 1.51423919200897 1.50504112243652 1.71592700481415 1.49575293064117 1.44983839988708 1.55194473266602 1.44781100749969 1.4448664188385 1.44077622890472 1.43681764602661 1.42829728126526 1.42037761211395 1.10055828094482 1.07926762104034 1.01672112941742 0.988811910152435 0.951474785804749 0.924442112445831 0.887017428874969 0.878728091716766 0.829207122325897 0.769505202770233 0.700481176376343 0.606477677822113 0.559697985649109 0.518155634403229 0.517535924911499 3.25954723358154 4.80562210083008 4.31220722198486 3.54076814651489 2.82801961898804 2.30769896507263 1.92054045200348 1.69083118438721 1.53744649887085 1.42127025127411 1.33988475799561 1.24800944328308 1.1288400888443 1.06243908405304 0.976017951965332 0.925014078617096 0.861217141151428 0.802303552627563 0.754445672035217 0.719029545783997 0.688553333282471 0.63350772857666 0.60094553232193 0.57703697681427 0.548388421535492 0.518054127693176 0.48700612783432 0.454020023345947 1.54746747016907 0.403962165117264 0.082747682929039 5.0980749130249 2.78413438796997 0.670425295829773 4.85557889938354 4.70539283752441 2.87490677833557 2.19575238227844 1.79089868068695 1.61359477043152 1.38429772853851
6.33183431625366 5.56017589569092 5.03945732116699 4.93133592605591 4.6048469543457 4.34502935409546 4.09522867202759 3.87251329421997 3.66870450973511 3.46752977371216 2.66506123542786 0.584499359130859 -0.535392582416534 -1.33360230922699 -1.80168747901917 -2.58316898345947 7.27251720428467 5.04175662994385 8.88060569763184 -2.72853541374207 9.90177631378174 2.09157800674438 9.42374897003174 31.8533039093018 3.13090229034424 19.06955909729 2.70234823226929 1.47934830188751 21.6770496368408 11.6461277008057 7.55818843841553 6.93856954574585 5.43802928924561 4.61697864532471 2.45270156860352 10.1059350967407 0.179638534784317 4.60470008850098 -1.13422167301178 4.51421022415161 16.5677433013916 10.5565023422241 10.1455345153809 15.6373176574707 7.70849132537842 7.99363708496094 3.19186544418335 1.89771771430969 0.283699691295624 0.0302391070872545 3.55215644836426 -0.704398274421692 42.4238128662109 25.4163246154785 33.9465789794922 23.8496036529541 19.928840637207 16.2189617156982 15.23974609375 13.8367795944214 31.336555480957 21.2927112579346 19.5114727020264 15.4356927871704 11.1346549987793 8.84876251220703 47.2138824462891 8.04127025604248 16.2182998657227 11.8764495849609 29.7118835449219 14.9226016998291 10.0349645614624 7.9555459022522 7.4770336151123 7.06287956237793 6.73420572280884 6.45199966430664 6.20669364929199 5.97574424743652 5.75736904144287 5.58621406555176 5.44781064987183 5.31132125854492 5.17869091033936 5.03457641601562 4.8960223197937 4.77337408065796 4.64756107330322 4.52667188644409 4.42083978652954 4.32072019577026 4.23047304153442 4.13745594024658 4.04564714431763 3.95243096351624 3.86069107055664 3.78254818916321 3.72162485122681 2.6465482711792 2.61152386665344 1.81512522697449 1.75932729244232 1.73939955234528 1.72346580028534 1.55281388759613 1.4852294921875 1.74079358577728 1.71147084236145 1.405433177948 1.37268555164337 1.36949896812439 1.36949217319489 1.45468151569366 1.60707712173462 1.41200590133667 1.44967138767242 1.37133574485779 1.24161016941071 1.01849246025085 1.06286036968231 0.941829741001129 0.917334377765656 0.8792684674263 0.873266160488129 0.856539011001587 0.840508460998535 0.787462115287781 0.738555014133453 0.670998275279999 0.619636297225952 0.575262188911438 0.552042126655579 1.35579895973206 3.51590061187744 4.12873697280884 3.7914674282074 3.20052099227905 2.56745028495789 2.12578320503235 1.83560371398926 1.60191237926483 1.43392944335938 1.40492594242096 1.28010928630829 1.16568207740784 1.08433377742767 1.0173727273941 0.953891217708588 0.890473246574402 0.842046320438385 0.791526854038239 0.753247916698456 0.705485165119171 0.671876013278961 0.639764964580536 0.598638594150543 0.569066107273102 0.546476304531097 0.508997082710266 -0.0684121921658516 12.8422527313232 10.1428461074829 5.98408174514771 -0.217078417539597 3.78673458099365 13.3282928466797 8.9704418182373 5.66662883758545 4.36359977722168 3.63786244392395 3.14148139953613 2.73862862586975 2.4053430557251
6.80993175506592 6.47400522232056 6.16376638412476 5.91997528076172 5.50220203399658 5.15944671630859 4.86610269546509 4.60768508911133 4.35385990142822 4.11143684387207 3.89463782310486 2.69252943992615 0.315050274133682 -0.604161560535431 9.40602111816406 -1.80941307544708 -1.8111766576767 4.91645812988281 1.65457129478455 -1.88162362575531 -2.00406575202942 -0.297711610794067 28.5340518951416 14.0260753631592 3.28650760650635 -1.02916169166565 11.7331228256226 21.5486965179443 11.0136680603027 8.31639385223389 7.07805633544922 7.05610418319702 2.38355588912964 15.6150798797607 2.05516290664673 6.38153076171875 1.56134986877441 0.857838153839111 0.929288685321808 -0.505579352378845 11.6586837768555 7.7449688911438 16.810962677002 11.7486371994019 3.67809796333313 12.5735054016113 -0.417694956064224 -0.881075620651245 -0.941328465938568 11.4012651443481 -1.09626734256744 10.2923851013184 27.7960147857666 24.4192600250244 24.2338943481445 19.7892932891846 9.75926494598389 30.1236209869385 28.2661285400391 22.3277626037598 13.7007617950439 37.52490234375 22.8110313415527 9.29850196838379 8.50200366973877 7.7012882232666 7.25183868408203 45.4078788757324 26.8674392700195 6.21132040023804 9.18919658660889 25.6876411437988 20.0695381164551 12.5225448608398 8.68727493286133 6.80574417114258 6.03766202926636 5.78100490570068 5.55960750579834 5.36352777481079 5.17926502227783 5.01961088180542 4.89471578598022 4.78169775009155 4.67131185531616 4.5540509223938 4.4262638092041 4.31194114685059 4.20823621749878 4.0965428352356 3.9888219833374 3.88839769363403 3.80378937721252 3.72562074661255 3.64796161651611 3.56933879852295 3.48966455459595 3.41245126724243 3.20387268066406 2.58563637733459 2.36350202560425 2.32281160354614 2.29483270645142 2.2655463218689 1.57841086387634 1.35903763771057 1.32201826572418 1.38242149353027 1.55262732505798 1.31936264038086 1.30055403709412 1.28864777088165 1.27721607685089 1.27212154865265 1.58787190914154 1.50311636924744 1.89208030700684 1.73075556755066 1.42159783840179 1.20063745975494 1.0106999874115 1.0074098110199 0.937442600727081 0.89033430814743 1.01442301273346 0.888102233409882 0.853973388671875 0.809438049793243 0.765355467796326 0.721882820129395 0.672659456729889 0.631562411785126 0.608202278614044 0.950265407562256 1.82232177257538 3.3660147190094 3.4603590965271 3.20720386505127 2.73161959648132 2.19830703735352 1.7976952791214 1.56727230548859 1.4120272397995 1.37887597084045 1.24960231781006 1.14802730083466 1.05859875679016 0.989341378211975 0.916171312332153 0.861648559570312 0.813260793685913 0.773379921913147 0.730848670005798 0.690779685974121 0.650396049022675 0.615040242671967 0.580863773822784 0.557550430297852 0.523100197315216 0.481046497821808 0.0207028537988663 -0.0250493530184031 7.15974760055542 13.4629163742065 5.56770801544189 3.39945650100708 0.826812982559204 15.876916885376 7.80357885360718 5.52592992782593 4.27747440338135 3.41697525978088 2.8551242351532 2.42588591575623
4.76427364349365 4.63869047164917 4.4176459312439 4.28630018234253 3.81291007995605 3.54226493835449 3.33598232269287 3.13547086715698 2.95328140258789 2.77248573303223 2.58094334602356 1.98452293872833 -0.393578439950943 -1.8975328207016 7.1801905632019 -2.09393382072449 4.52338981628418 -0.984480321407318 -2.47969770431519 0.243792563676834 -2.44415855407715 2.94876766204834 2.46594500541687 12.6857299804688 0.157801553606987 -1.77928328514099 5.78449583053589 12.3636093139648 12.8635911941528 7.12143850326538 3.04009032249451 18.4227523803711 1.63727748394012 -1.18272578716278 -1.21829843521118 23.1113224029541 3.31779408454895 5.53550863265991 2.71789789199829 3.30521130561829 2.55007266998291 11.5560216903687 8.4123067855835 5.65915870666504 2.51088833808899 1.68294763565063 -1.21156644821167 -1.74103009700775 11.7588186264038 -1.77734708786011 -0.642196655273438 24.2545490264893 11.9718780517578 17.972110748291 38.0512199401855 19.5303440093994 14.2347087860107 35.2012710571289 22.9773063659668 18.0920753479004 16.0163631439209 14.4897909164429 9.37623882293701 8.36196804046631 14.090633392334 10.1530456542969 34.6770095825195 5.82197856903076 8.20226383209229 47.1014938354492 5.80383491516113 24.8862342834473 23.3299465179443 14.665244102478 10.4369945526123 7.77305269241333 6.12026166915894 5.61970615386963 5.38713407516479 5.18843698501587 5.0154333114624 4.85455131530762 4.72106313705444 4.61715126037598 4.51392412185669 4.40323162078857 4.2851357460022 4.16499900817871 4.05644798278809 3.95561027526855 3.84595990180969 3.73706078529358 3.63769388198853 3.56026172637939 3.48616528511047 3.41421627998352 3.34086155891418 3.27171754837036 2.81913089752197 2.77157211303711 2.39714789390564 1.67179977893829 1.64436614513397 1.63120687007904 1.61252415180206 1.57658457756042 1.54912352561951 1.52758932113647 1.52451503276825 1.51470804214478 1.50909841060638 1.48011708259583 1.45823049545288 1.43876111507416 1.43036007881165 1.27410614490509 1.67047762870789 1.99273705482483 1.89038145542145 1.69954001903534 1.43564569950104 1.2614004611969 1.0226868391037 0.932381927967072 0.931319832801819 1.12346315383911 0.905798852443695 0.864515364170074 0.829927682876587 0.772114813327789 0.721462070941925 0.676179528236389 0.660711228847504 0.87068647146225 1.33450055122375 2.08908438682556 3.28281688690186 3.55824995040894 2.88914585113525 2.34890341758728 1.92658448219299 1.64938616752625 1.45241546630859 1.35633146762848 1.26815903186798 1.1442244052887 1.06179523468018 0.985045492649078 0.918984174728394 0.854617476463318 0.805277109146118 0.762761950492859 0.727069437503815 0.687910079956055 0.640207946300507 0.60742461681366 0.582710742950439 0.560918807983398 0.543228447437286 0.440035045146942 0.102413319051266 0.0581393055617809 7.30688190460205 4.43423223495483 -0.433108299970627 10.5687246322632 8.48039817810059 20.7161540985107 10.5249938964844 7.7715368270874 6.57980585098267 5.68589544296265 5.01070737838745 4.42834186553955
5.47266435623169 4.8383584022522 3.99190402030945 3.65091490745544 2.80768346786499 2.43969488143921 2.23800873756409 2.07793855667114 1.93411421775818 1.75426483154297 1.56618881225586 1.43960916996002 -0.15032771229744 -1.85699188709259 10.7321529388428 -2.47468638420105 -2.54946255683899 -2.90651512145996 -3.22959685325623 0.776670634746552 -3.38139724731445 8.94183444976807 4.37445640563965 5.79666757583618 15.867639541626 10.7035188674927 3.1980562210083 5.44310569763184 11.2421188354492 2.51389575004578 1.97483992576599 8.08790016174316 1.47275471687317 -0.248310923576355 6.55449914932251 -0.868013858795166 0.998166680335999 17.1821517944336 6.34076976776123 8.23390197753906 5.77553272247314 6.09945440292358 3.45480918884277 3.17820882797241 12.3476676940918 3.57619547843933 1.66722428798676 -0.749167561531067 -1.0533162355423 -1.16446340084076 11.9881887435913 9.23745632171631 8.7224063873291 11.4107789993286 24.5955772399902 24.4429798126221 8.70918846130371 42.4267120361328 28.4059066772461 21.8522663116455 17.946533203125 7.03977108001709 10.5054578781128 6.43019104003906 46.4089202880859 27.6421356201172 5.75740146636963 5.28892612457275 4.59407377243042 4.56217384338379 45.5609474182129 4.07192611694336 45.4131240844727 25.0959396362305 16.4177856445312 12.0276136398315 9.14859867095947 7.38404512405396 6.16445255279541 5.30474805831909 4.71921300888062 4.22845983505249 3.99968099594116 3.91804003715515 3.84327435493469 3.74968266487122 3.65367412567139 3.55444264411926 3.45225405693054 3.36325001716614 3.27432942390442 3.17324161529541 3.08164978027344 3.0074634552002 2.94800519943237 2.88353586196899 2.82762765884399 2.57862043380737 2.44349789619446 2.28033518791199 2.04278922080994 1.63117909431458 1.61044836044312 1.59460365772247 1.44427454471588 1.40876245498657 1.38439965248108 1.36607229709625 1.35575103759766 1.3507331609726 1.33463084697723 1.30899691581726 1.28925883769989 1.26522707939148 1.25437068939209 1.24879336357117 1.24704933166504 1.68393528461456 2.07009410858154 2.13056921958923 1.94950306415558 1.44437730312347 1.20795619487762 1.07189190387726 1.71188712120056 1.11050426959991 1.05887413024902 1.07889211177826 0.994467377662659 0.912329614162445 0.833592236042023 0.750654816627502 0.716041207313538 0.712167620658875 1.5772385597229 1.91396737098694 3.33353233337402 3.3937714099884 3.02662563323975 2.47980690002441 2.08582663536072 1.76587009429932 1.54828035831451 1.48285949230194 1.36721503734589 1.24235105514526 1.15025103092194 1.06855773925781 0.992602229118347 0.926937997341156 0.869659781455994 0.821111619472504 0.775171995162964 0.728818356990814 0.701838135719299 0.684086740016937 0.666424870491028 0.647164881229401 0.621107935905457 0.60619705915451 0.327106416225433 7.41171169281006 0.241546720266342 7.73886871337891 7.44381427764893 -0.389389544725418 8.54686641693115 14.3658227920532 15.4673080444336 10.2064142227173 7.88283443450928 6.62169075012207 5.70642423629761 5.00014686584473
8.95590400695801 7.87835884094238 6.8271803855896 6.15471172332764 5.12382984161377 4.60208177566528 4.18295097351074 3.84615182876587 3.55727672576904 3.2617495059967 2.99325203895569 2.78243279457092 0.546822190284729 -0.801046371459961 15.3228750228882 -1.22612166404724 -1.7998218536377 0.0387763455510139 -2.54071664810181 -2.99759793281555 4.85822105407715 1.26771247386932 2.30047655105591 7.68060970306396 13.8085508346558 9.94309329986572 4.0462646484375 8.0559253692627 4.33961057662964 7.67210054397583 5.87558841705322 18.5710315704346 5.51226854324341 -0.4756098985672 -1.02067995071411 -1.18230557441711 10.8482303619385 23.5652275085449 7.80964374542236 6.7993426322937 4.91127014160156 5.35828399658203 4.26728534698486 4.12920761108398 5.28475189208984 3.222904920578 2.23739957809448 1.3252340555191 0.608494877815247 8.08755207061768 1.12027871608734 1.52195453643799 25.7093887329102 7.93271017074585 7.37527179718018 11.5620708465576 23.4996471405029 9.63032054901123 35.5139312744141 22.2064647674561 4.48442888259888 24.0743713378906 38.5388107299805 22.3802089691162 6.4048867225647 3.33503723144531 3.23408985137939 3.70793795585632 3.06521034240723 5.66765594482422 1.94745278358459 51.8794898986816 23.6489582061768 21.5792541503906 15.7378940582275 12.4337921142578 10.2437086105347 8.43305492401123 7.22320508956909 6.30634546279907 5.64172410964966 5.10530948638916 4.66370439529419 4.356849193573 4.11774921417236 3.87783455848694 3.63852167129517 3.4250123500824 3.21086454391479 3.01283836364746 2.82052516937256 2.65495634078979 2.5044367313385 2.38931012153625 2.27571320533752 2.18097996711731 2.10980081558228 2.04400444030762 1.98687839508057 1.92103350162506 1.85905611515045 1.81440007686615 1.78528118133545 1.753054022789 1.72130143642426 1.68253171443939 1.65014255046844 1.62481546401978 1.60923290252686 1.58739018440247 1.5507253408432 1.52540612220764 1.50268495082855 1.47042834758759 1.45113277435303 1.44231164455414 1.46326839923859 1.80235660076141 1.80489492416382 2.05540084838867 1.89092040061951 1.62027895450592 1.30792772769928 1.8091527223587 1.29487144947052 1.21164238452911 1.1607745885849 1.2174209356308 1.11352944374084 1.05307567119598 0.976798295974731 0.896198809146881 0.812063455581665 0.829086124897003 1.63251972198486 2.3894259929657 3.11157202720642 3.46298599243164 3.00867104530334 2.58778214454651 2.13659429550171 1.96243155002594 1.73563468456268 1.63230812549591 1.49863874912262 1.37451565265656 1.26699638366699 1.18336296081543 1.09671700000763 1.02615606784821 0.963815927505493 0.913080275058746 0.858703315258026 0.805517971515656 0.758751392364502 0.757157027721405 0.745985567569733 0.722564578056335 0.700007081031799 0.686595737934113 0.667979180812836 0.538243591785431 0.511042833328247 0.12199792265892 0.0586031191051006 22.6497707366943 11.7288227081299 3.14739537239075 2.06734704971313 11.8579912185669 7.58175086975098 5.17593908309937 3.88036584854126 3.10133218765259
2.88244295120239 2.80538439750671 2.67646241188049 2.26953983306885 1.84012126922607 1.69502055644989 1.55957400798798 1.46367228031158 1.36963224411011 1.26836287975311 1.18360543251038 1.11008095741272 1.05387496948242 0.148907050490379 -1.41616475582123 -1.74670243263245 2.72432971000671 -2.08819103240967 -2.47298264503479 -2.76704263687134 7.71004581451416 -1.91904330253601 15.3833656311035 12.5824346542358 9.64774131774902 15.0770587921143 11.4841089248657 9.13683700561523 6.78799343109131 4.63776350021362 21.3290271759033 11.4488306045532 6.23117876052856 3.92082476615906 0.53985583782196 0.465944647789001 -0.152203395962715 2.94986581802368 20.8044490814209 0.818757355213165 5.93497228622437 -0.332874000072479 15.5641775131226 8.91506481170654 7.15663909912109 5.50895071029663 1.85227000713348 5.16833972930908 1.1910172700882 5.7174072265625 20.2643909454346 11.2455425262451 9.16025638580322 4.87446117401123 3.04422354698181 0.535916745662689 50.1656341552734 32.4443511962891 10.6186628341675 16.5545883178711 35.4781150817871 19.4348011016846 7.08355283737183 3.40891122817993 10.7773580551147 11.274676322937 8.45835018157959 5.87822341918945 4.3989725112915 3.27338457107544 1.95607244968414 1.72209239006042 1.32322800159454 47.8800926208496 27.5979080200195 18.6029434204102 14.0102033615112 11.0787200927734 8.74103164672852 7.31765413284302 6.31776285171509 5.5230770111084 4.95534563064575 4.51857376098633 4.15066337585449 3.83217287063599 3.56258845329285 3.31505155563354 3.10040283203125 2.87591600418091 2.64862012863159 2.4713351726532 2.34537243843079 2.22776079177856 2.1019024848938 2.00632524490356 1.92605364322662 1.85783624649048 1.81137526035309 1.76092195510864 1.70054316520691 1.64198446273804 1.60409069061279 1.58637809753418 1.54163837432861 1.50509798526764 1.48186695575714 1.4547176361084 1.43579232692719 1.41271376609802 1.3711324930191 1.35255432128906 1.33429729938507 1.30293297767639 1.28263747692108 1.26959562301636 1.34484946727753 1.97809708118439 2.26723098754883 2.15989112854004 1.91021156311035 1.75577318668365 1.55414247512817 1.42111384868622 1.64171922206879 1.38672053813934 1.32359051704407 1.27831041812897 1.18829619884491 1.12327098846436 1.06853568553925 0.985600650310516 0.953415215015411 0.904643356800079 1.32366001605988 2.97479486465454 3.01588201522827 2.99152421951294 2.9674379825592 2.67537593841553 2.38779640197754 2.23119187355042 1.98666381835938 1.83073258399963 1.66426062583923 1.52407288551331 1.39813530445099 1.29491209983826 1.20172941684723 1.13064992427826 1.0591436624527 0.999025642871857 0.942756354808807 0.881355583667755 0.830761790275574 0.826745867729187 0.820794999599457 0.792389333248138 0.777262806892395 0.757692694664001 0.736270844936371 0.716832518577576 0.696804225444794 0.569077551364899 0.524651646614075 0.279986053705215 0.182943522930145 4.91580486297607 6.18274450302124 1.56148266792297 12.012414932251 5.99551153182983 4.02991390228271 3.06024479866028
2.29937744140625 2.1454381942749 2.3070285320282 1.60743713378906 1.36362504959106 1.27020835876465 1.19171726703644 1.10875868797302 1.0408399105072 0.986053168773651 0.917472779750824 0.863941490650177 0.820091426372528 0.58562034368515 -0.233699589967728 -1.42772436141968 10.8911428451538 -1.48912835121155 1.533371925354 -1.94031918048859 3.80777716636658 0.4140265583992 9.65479946136475 -1.69944131374359 29.2094745635986 16.300142288208 11.6557302474976 9.19196701049805 7.67446517944336 6.87746143341064 6.25198459625244 5.6116247177124 4.84347581863403 4.13571691513062 0.552060425281525 0.552455008029938 -0.109723597764969 -1.38382267951965 1.24687814712524 24.6173057556152 13.6198978424072 9.58181285858154 23.2054748535156 8.83765697479248 5.1628270149231 27.8184356689453 3.23435378074646 5.86399984359741 0.457288593053818 0.357555985450745 30.3484973907471 9.34690189361572 35.969898223877 20.0600776672363 13.6424446105957 11.1123600006104 0.821592390537262 8.67848873138428 12.2871780395508 43.9609642028809 3.16410636901855 3.03927135467529 1.69684219360352 16.3337917327881 3.82799315452576 1.58520376682281 23.4237384796143 8.98034572601318 6.92942237854004 2.96794128417969 0.795003294944763 0.64667272567749 12.6845731735229 0.625011265277863 47.5269432067871 27.6053905487061 18.808277130127 14.1848878860474 11.0662603378296 8.67431259155273 7.28561925888062 6.22901105880737 5.4904899597168 4.92288208007812 4.40257883071899 3.96027731895447 3.61170983314514 3.33801531791687 3.09932470321655 2.88725733757019 2.66837024688721 2.46654057502747 2.32568979263306 2.2101366519928 2.09079170227051 1.99187457561493 1.89707815647125 1.82609343528748 1.78247356414795 1.74206447601318 1.692143201828 1.63389348983765 1.57486164569855 1.54272985458374 1.50212335586548 1.4651745557785 1.44995284080505 1.42377245426178 1.38760125637054 1.35467231273651 1.30808520317078 1.2903608083725 1.26788008213043 1.24120402336121 1.2190535068512 1.20157122612 1.24229860305786 1.61033940315247 2.45970559120178 2.29615187644958 2.04436373710632 1.94023382663727 1.85424602031708 2.09676480293274 1.40116620063782 2.83869218826294 1.40341198444366 1.36450815200806 1.25749433040619 1.17729842662811 1.12370800971985 1.07688808441162 1.04919338226318 0.999672055244446 1.22594106197357 2.67026734352112 2.92148303985596 2.86170744895935 2.84715437889099 2.63886666297913 2.52357196807861 2.41725969314575 2.19469690322876 2.03169989585876 1.85744738578796 1.69981586933136 1.55770969390869 1.43557870388031 1.33129405975342 1.24476003646851 1.16651785373688 1.09610557556152 1.03159511089325 0.97546523809433 0.944659173488617 0.91370964050293 0.898031711578369 0.878651201725006 0.858005225658417 0.837909758090973 0.81663316488266 0.799376904964447 0.775161445140839 0.750248432159424 0.71620100736618 0.658866226673126 0.614274084568024 0.583736896514893 0.541689336299896 0.52991771697998 0.587648868560791 0.517262637615204 0.477382034063339 0.466918140649796
1.55466115474701 1.487797498703 2.15505528450012 1.10660064220428 0.943925678730011 0.884375035762787 0.829890668392181 0.777906179428101 0.738958179950714 0.694863498210907 0.64646178483963 0.615858733654022 0.588406562805176 0.542685568332672 -0.430479347705841 5.58359384536743 -0.471062839031219 -0.636079788208008 -0.962591290473938 -1.02607905864716 5.42866325378418 4.53417539596558 -1.8752167224884 19.8111057281494 11.3619518280029 7.31776475906372 5.5702805519104 4.68989944458008 4.22461748123169 4.0198073387146 3.88446521759033 3.72026491165161 3.50758123397827 3.2057192325592 -0.142940759658813 1.54220378398895 5.80059957504272 0.292335033416748 -0.637838840484619 7.45543432235718 24.5988941192627 18.9242134094238 12.6842679977417 9.45337009429932 7.67787408828735 6.55015754699707 5.61491823196411 4.75553274154663 4.2269344329834 3.91483807563782 3.60499429702759 3.2922477722168 3.02056097984314 -1.22956240177155 3.93364953994751 21.5404186248779 13.8345880508423 44.39697265625 3.82850432395935 3.0936598777771 2.74515843391418 2.21350049972534 11.3076972961426 2.0737738609314 1.72147130966187 5.09850025177002 14.9271078109741 10.7961702346802 1.76169145107269 1.19679999351501 7.08703804016113 4.81472778320312 1.13204002380371 1.97581303119659 0.964940309524536 47.9520950317383 28.2040176391602 19.2907047271729 14.4011039733887 11.0649375915527 8.78334426879883 7.397132396698 6.36606884002686 5.58902311325073 4.89726305007935 4.29987192153931 3.8125 3.44949722290039 3.19130659103394 2.9408233165741 2.73426842689514 2.5390887260437 2.36600804328918 2.23428821563721 2.12912440299988 2.03319907188416 1.92645478248596 1.85446810722351 1.804762840271 1.76558613777161 1.72853124141693 1.67175030708313 1.60561585426331 1.54100215435028 1.49592387676239 1.47528052330017 1.44906377792358 1.4256284236908 1.3878208398819 1.34199702739716 1.2911936044693 1.26411914825439 1.23528361320496 1.21402609348297 1.1875364780426 1.1627858877182 1.15706491470337 1.18187856674194 2.46173715591431 2.09419322013855 1.93501245975494 2.16017079353333 3.01909685134888 2.00684928894043 1.59096646308899 2.08331370353699 1.59075808525085 1.50147819519043 1.32554161548615 1.26240050792694 1.16592800617218 1.1478054523468 1.1161687374115 1.07784461975098 1.33534705638885 2.44683384895325 2.4358434677124 2.37926197052002 2.54841017723083 2.54232978820801 2.7837188243866 2.5910472869873 2.33053708076477 2.19500136375427 2.03471684455872 1.83353543281555 1.72405898571014 1.59411716461182 1.47536551952362 1.37661290168762 1.2851939201355 1.20840299129486 1.12962222099304 1.07027399539948 1.03704595565796 1.00964713096619 0.98255580663681 0.95966511964798 0.938251078128815 0.91565728187561 0.892065942287445 0.873017966747284 0.850638747215271 0.829931437969208 0.803017795085907 0.751763641834259 0.714830577373505 0.679013967514038 0.631665766239166 0.598352909088135 0.590638399124146 0.575567662715912 0.551901578903198 0.530692100524902
1.02579843997955 1.45668840408325 1.62397515773773 0.608299136161804 0.525047540664673 0.498738437891006 0.466359108686447 0.423108875751495 0.390195846557617 0.374818623065948 0.350169688463211 0.329327136278152 0.319505244493484 0.297442436218262 0.279964953660965 0.213962942361832 0.0512231513857841 -0.244910463690758 -0.878186881542206 16.319278717041 8.24297046661377 4.49925231933594 -1.56510508060455 17.7465515136719 6.99468040466309 3.89494681358337 3.02525758743286 2.58513474464417 2.4116804599762 2.68932271003723 3.04540133476257 2.9577853679657 2.66658020019531 2.35019707679749 -0.706514239311218 30.5662307739258 16.711893081665 11.5249538421631 8.84058666229248 7.1707935333252 6.00358581542969 5.08529043197632 4.5782585144043 4.21952724456787 3.78669238090515 3.44414734840393 3.09249091148376 -1.65414202213287 -1.73671615123749 18.5963516235352 12.3870582580566 5.52639198303223 5.40006351470947 3.18097019195557 7.09212303161621 45.3020973205566 1.49505364894867 3.48219537734985 3.83318948745728 1.25548589229584 0.525794148445129 7.54760932922363 1.45673072338104 1.24253714084625 0.684651553630829 6.37036800384521 3.55334448814392 2.88912129402161 1.07955706119537 0.831408977508545 5.2756986618042 3.4937162399292 1.81093776226044 2.96869421005249 1.5141419172287 0.593235552310944 47.2755928039551 27.6283054351807 18.7228164672852 13.8835849761963 10.6540508270264 8.61049365997314 7.25719881057739 6.19109058380127 5.3418436050415 4.60591173171997 3.96896409988403 3.4573347568512 3.12160730361938 2.86374711990356 2.63693261146545 2.46514821052551 2.29640865325928 2.15999007225037 2.0660662651062 1.96229135990143 1.86811947822571 1.79600191116333 1.74597358703613 1.70954060554504 1.67013561725616 1.62280380725861 1.56330513954163 1.50045466423035 1.44409382343292 1.40898680686951 1.39002215862274 1.3601199388504 1.32590222358704 1.28222250938416 1.22622692584991 1.18712818622589 1.15654897689819 1.13998198509216 1.11102974414825 1.08406603336334 1.06566870212555 1.06363642215729 2.45812392234802 1.8458958864212 1.64544999599457 2.32235765457153 2.62173986434937 2.23606061935425 1.36162674427032 1.23749923706055 1.09599030017853 3.50348925590515 2.08024406433105 0.967225790023804 2.96980857849121 2.2288293838501 1.87299001216888 1.6625988483429 1.56311345100403 2.33719563484192 2.20408654212952 2.36003828048706 2.50280499458313 2.74422311782837 3.43324589729309 2.97615027427673 2.68498826026917 2.48737525939941 2.25629067420959 2.03035354614258 1.89012551307678 1.75559389591217 1.64972937107086 1.5375052690506 1.44523334503174 1.377885222435 1.3171694278717 1.26083326339722 1.20381903648376 1.16038656234741 1.11666226387024 1.07524657249451 1.03717851638794 1.00280892848969 0.968111872673035 0.943639755249023 0.924977898597717 0.903317928314209 0.882571399211884 0.82840496301651 0.804228186607361 0.781080782413483 0.764480471611023 0.760889887809753 0.741113841533661 0.722418785095215 0.703013241291046 0.683248221874237
1.2134884595871 2.74501347541809 0.910783648490906 0.451809912919998 0.376336067914963 0.333623647689819 0.279024690389633 0.25405815243721 0.239246398210526 0.233260303735733 0.227280110120773 0.225414618849754 0.223833650350571 0.220178157091141 0.213220223784447 0.196980223059654 0.162529125809669 0.089502364397049 -0.0111608849838376 -0.0688524022698402 -0.27651184797287 -0.575605511665344 -0.645483911037445 -0.81108695268631 -1.15540599822998 -1.75470066070557 17.9037971496582 10.8336048126221 8.2003116607666 6.84496259689331 6.0942063331604 5.44711208343506 4.77252531051636 4.20756769180298 4.08476495742798 4.06551504135132 3.92178916931152 3.65687775611877 3.3343985080719 3.04443049430847 2.75883531570435 2.53203749656677 2.46617364883423 2.40986490249634 2.26380276679993 2.14260029792786 2.01887965202332 -0.818704009056091 14.1470031738281 4.57772970199585 0.949003517627716 -0.699259161949158 -0.860040485858917 50.6258430480957 -0.372432678937912 -0.613160014152527 0.171598434448242 0.576596021652222 12.4168014526367 5.33093786239624 1.02789235115051 -0.683509528636932 0.0226270500570536 1.18420803546906 2.21213269233704 8.56718063354492 1.20574200153351 0.991626977920532 3.68293452262878 0.876102149486542 2.58728861808777 1.69785809516907 1.45566725730896 0.679528474807739 8.25953769683838 4.86729955673218 43.3764801025391 24.489767074585 16.2556591033936 11.9014873504639 9.30772590637207 7.26271343231201 6.1128077507019 5.18540191650391 4.47487926483154 3.92587471008301 3.40317177772522 2.95330667495728 2.61055040359497 2.36671924591064 2.21519756317139 2.07369089126587 1.96580266952515 1.87034523487091 1.79478943347931 1.71313941478729 1.65482866764069 1.59233343601227 1.55309557914734 1.53570306301117 1.507847905159 1.46877503395081 1.42640721797943 1.37738406658173 1.33445239067078 1.24708414077759 2.12355756759644 1.24238121509552 1.2159469127655 1.179842710495 1.13173568248749 1.08920288085938 1.05591225624084 1.03656804561615 1.0064400434494 0.981946706771851 0.963960587978363 1.01546084880829 2.18857073783875 1.70331609249115 1.51235342025757 1.4137806892395 2.38292121887207 1.80774712562561 1.04945433139801 0.976607263088226 0.941925287246704 0.793684244155884 3.31015610694885 1.74724888801575 1.48077857494354 1.43545997142792 1.39593732357025 1.3688577413559 1.61360156536102 1.77051794528961 2.24438524246216 3.1334183216095 4.12491798400879 3.49280571937561 3.48486661911011 3.42094445228577 3.17200922966003 2.95444464683533 2.66467189788818 2.41473507881165 2.22269582748413 2.05932903289795 1.89348161220551 1.70393478870392 1.39947855472565 2.68913745880127 1.46938693523407 1.35862350463867 1.3319216966629 1.2960205078125 1.25687634944916 1.2141261100769 1.17459893226624 1.13647937774658 1.10216677188873 1.06591045856476 1.03080976009369 1.00026571750641 0.971973359584808 0.951950550079346 0.925447642803192 0.902933597564697 0.886804282665253 0.878055512905121 0.857419848442078 0.837001860141754 0.815316557884216 0.794215798377991
2.19156551361084 2.29708623886108 1.91458213329315 1.7704576253891 1.65774691104889 1.56032872200012 1.47711420059204 1.40450882911682 1.33477592468262 1.27444970607758 1.22491812705994 1.18026065826416 1.13909804821014 1.10040235519409 1.05692446231842 1.00659692287445 0.946422338485718 0.876818001270294 0.767989456653595 0.668993175029755 0.574065327644348 0.475580930709839 0.379576832056046 0.216739624738693 -0.130872592329979 -0.215403601527214 -0.27263730764389 4.11702251434326 4.7485785484314 4.23313188552856 3.82650136947632 3.04897284507751 2.98378849029541 3.9419891834259 5.50977563858032 3.55080652236938 2.93384885787964 2.69126558303833 2.47030687332153 2.25328874588013 2.05380272865295 1.92318141460419 1.8439359664917 1.74918293952942 1.6595002412796 1.57393026351929 -1.46745729446411 32.794849395752 13.06520652771 -1.5197286605835 -1.78273665904999 52.3031311035156 13.0970039367676 1.16782331466675 10.3986835479736 0.896205067634583 1.24480557441711 0.426435977220535 3.65665888786316 0.395998954772949 6.10258769989014 4.48977851867676 2.95895028114319 0.358785361051559 2.719646692276 0.298185527324677 2.41752767562866 2.59240102767944 0.283585458993912 0.28092759847641 6.17138385772705 0.83098179101944 1.43822586536407 0.0839348882436752 -0.058447502553463 0.548939168453217 19.5804805755615 40.4590530395508 22.2110652923584 15.8382339477539 12.4599761962891 10.1408739089966 8.31368732452393 7.22397994995117 6.17432546615601 5.29643249511719 4.57432889938354 3.93103384971619 3.38195037841797 -0.19861102104187 7.89700365066528 34.6244049072266 19.1206798553467 13.0594100952148 9.86834144592285 8.00904273986816 6.93742370605469 6.13381385803223 5.51088857650757 5.04934644699097 4.66413021087646 4.34320545196533 4.03736209869385 3.77868890762329 3.54888463020325 3.31922721862793 3.1419243812561 2.95987868309021 2.82563853263855 2.67973065376282 2.53170490264893 2.39431309700012 2.27343344688416 2.17282676696777 2.06647849082947 1.98192548751831 1.92234516143799 1.90114343166351 1.88351154327393 1.84038078784943 1.78074562549591 1.97480881214142 4.10272550582886 1.88368368148804 1.65769469738007 1.60348737239838 1.56418991088867 1.55533695220947 1.5090423822403 0.175314694643021 43.9317321777344 26.2541904449463 18.6247730255127 14.5130443572998 11.9593029022217 10.1522779464722 9.01175880432129 8.45904636383057 6.69404172897339 13.4617023468018 8.27181529998779 6.74129629135132 6.46232223510742 6.14547634124756 5.79722595214844 5.50925254821777 5.24673748016357 5.00137567520142 4.70326328277588 4.39834690093994 4.10190534591675 3.90536427497864 3.76193499565125 3.67543601989746 3.60362601280212 3.51163339614868 3.39971876144409 3.28293466567993 3.16754126548767 3.06236910820007 2.96172046661377 1.33356475830078 1.09639692306519 0.861557304859161 6.827880859375 44.0438613891602 25.8303718566895 17.9327659606934 13.7986326217651 11.107159614563 9.3405590057373 8.0145149230957 6.99434900283813 6.28385162353516
27.1073188781738 14.4771709442139 9.6229829788208 7.64629745483398 6.33899736404419 5.39561605453491 4.68281698226929 4.13974952697754 3.71530342102051 3.36624312400818 3.08608984947205 2.85181212425232 2.66013050079346 2.48875665664673 2.32142567634583 2.16000032424927 2.0050048828125 1.84963929653168 1.68095886707306 1.52962327003479 1.38630664348602 1.21409142017365 1.01140415668488 0.779269218444824 0.585963904857635 -0.704393565654755 21.7588214874268 10.2232227325439 7.92559623718262 6.95577144622803 5.86851787567139 5.62477207183838 6.71854734420776 5.33716154098511 4.89594507217407 4.50608825683594 4.13779640197754 3.81875085830688 3.54583764076233 3.27729296684265 3.05936002731323 2.89450120925903 2.74166989326477 2.59128975868225 2.46659421920776 2.34695553779602 1.41702306270599 0.279856592416763 -0.600609183311462 47.0833168029785 -0.917300283908844 4.80922174453735 3.62630701065063 2.47540497779846 1.50658702850342 -0.137924209237099 9.11862850189209 7.00560140609741 4.82472038269043 2.54443550109863 2.49705123901367 1.82117772102356 0.931312620639801 0.867106199264526 13.194920539856 7.99311876296997 12.0271453857422 4.82460498809814 3.29244518280029 6.03050756454468 0.472791731357574 0.159989088773727 0.035289254039526 7.43878030776978 0.811272501945496 -0.129359468817711 5.86429166793823 10.5593061447144 41.2828674316406 22.7958583831787 15.0137062072754 10.9312410354614 8.78027725219727 7.09148120880127 6.05369710922241 5.13843393325806 4.41200923919678 3.80461883544922 2.2224268913269 1.89297235012054 8.06374835968018 4.22777605056763 3.18283486366272 2.50173330307007 2.05436301231384 1.85105538368225 1.79385769367218 1.74773573875427 1.7123349905014 1.66677868366241 1.6264865398407 1.59699404239655 1.56659340858459 1.52574682235718 1.49691772460938 1.45354342460632 1.39612007141113 1.34091866016388 1.30462825298309 1.25855553150177 1.21778678894043 1.17424476146698 1.13274300098419 1.09516215324402 1.05576002597809 1.03379189968109 1.00348103046417 0.978767395019531 0.963121235370636 0.958071291446686 1.12657642364502 2.31773447990417 4.41117477416992 1.49110794067383 0.671864032745361 0.502541661262512 0.446230351924896 1.24662697315216 0.908707797527313 -0.90332555770874 45.3627281188965 27.5335960388184 19.7120532989502 15.3554658889771 12.5343914031982 10.5174026489258 9.41873073577881 6.68318939208984 6.5073504447937 16.0799255371094 10.0877332687378 7.74018526077271 6.83881044387817 6.30717372894287 5.97565269470215 5.69726657867432 5.43098115921021 5.17687940597534 4.79588556289673 4.48945188522339 4.21260070800781 4.03729295730591 3.92732214927673 3.86884808540344 3.84954142570496 3.7721848487854 2.22514390945435 28.0016460418701 3.37302684783936 2.95854616165161 2.19442105293274 1.86116468906403 1.40649807453156 1.09961628913879 1.09108769893646 1.03484213352203 2.63690114021301 46.203369140625 27.802848815918 19.3519744873047 14.7923183441162 11.9286098480225 9.96825981140137 8.55636882781982
-0.111615240573883 33.9190559387207 17.930850982666 11.9463205337524 8.85840034484863 7.01569557189941 5.78351640701294 4.90845727920532 4.2844705581665 3.79665637016296 3.41344857215881 3.10902070999146 2.84809875488281 2.62802910804749 2.42863750457764 2.23964214324951 2.07036328315735 1.88655269145966 1.72728645801544 1.59807157516479 1.47105348110199 1.31780254840851 1.11065363883972 0.89967554807663 0.726498305797577 0.554626047611237 0.345386177301407 0.142870366573334 0.102751106023788 2.51267623901367 2.33208155632019 6.00093078613281 5.77341175079346 4.67904186248779 3.81843686103821 3.19692778587341 2.72624158859253 2.40384554862976 2.16267657279968 1.95332276821136 1.81504583358765 1.71083629131317 1.59400260448456 1.49606871604919 1.40410566329956 1.31802129745483 -1.02886021137238 52.0506477355957 1.759934425354 6.95072984695435 4.82386589050293 2.48335957527161 1.1718282699585 0.694990754127502 0.37645548582077 2.62409830093384 2.26520562171936 21.589262008667 11.5377950668335 6.56718254089355 3.2604124546051 2.32581901550293 3.73625898361206 2.61246609687805 2.60305309295654 2.03569173812866 1.64024043083191 8.71677303314209 2.3907105922699 1.48812401294708 0.196571618318558 0.151575863361359 0.111236318945885 15.3428630828857 7.43990564346313 4.55718755722046 -0.164817661046982 4.70305633544922 14.1635684967041 41.5690956115723 22.9734992980957 15.0893354415894 11.6671123504639 9.38870811462402 7.64526605606079 6.40823078155518 5.37749719619751 3.13581418991089 2.61102676391602 1.58003115653992 16.7685813903809 -0.567750573158264 12.7647476196289 38.0454483032227 21.6307830810547 14.9704790115356 11.7776803970337 10.0425033569336 8.76807022094727 7.79859352111816 7.02434110641479 6.39722156524658 5.88457012176514 5.43857336044312 5.07926082611084 4.74898958206177 4.41248416900635 4.08258533477783 3.83346390724182 3.59219145774841 3.40081572532654 3.22330522537231 3.07033157348633 2.93827891349792 2.80818939208984 2.64744853973389 2.51348185539246 2.4074592590332 2.3171021938324 2.25099873542786 2.22392177581787 2.68734622001648 4.51492166519165 2.12296772003174 1.97683417797089 1.86837112903595 1.76925086975098 -0.626531183719635 33.0726203918457 19.264087677002 41.2109413146973 24.6728534698486 18.2783298492432 15.571325302124 13.4480972290039 11.8720865249634 11.0177412033081 6.06064748764038 27.8728542327881 21.2389297485352 15.7912912368774 12.4503898620605 9.5757999420166 9.45900058746338 8.48673343658447 7.65291166305542 6.88350057601929 6.20361757278442 5.77858448028564 5.44733285903931 5.16789722442627 5.0278754234314 4.9349102973938 4.87628412246704 4.23579454421997 7.66692686080933 3.53124570846558 14.9892835617065 12.9420528411865 9.46340274810791 5.0136079788208 3.68951821327209 2.79184651374817 2.69271755218506 2.5464608669281 2.18028783798218 22.4025573730469 27.9667091369629 17.6425266265869 13.4009981155396 10.8135461807251 9.07633876800537 7.7971363067627 6.80756187438965
2.19236826896667 2.16027498245239 2.13105440139771 2.05861759185791 1.98764050006866 1.90880060195923 1.83783578872681 1.77427911758423 1.71740925312042 1.6437109708786 1.58740377426147 1.54169082641602 1.49989402294159 1.46238076686859 1.42413401603699 1.38428640365601 1.34297776222229 1.29017329216003 1.24473643302917 1.20768165588379 1.17136335372925 1.07294070720673 0.376314729452133 0.299776077270508 0.225142359733582 0.145170569419861 -0.389113396406174 -0.510709404945374 -0.569412469863892 -0.171737760305405 -0.0834375321865082 5.68889236450195 7.0147385597229 5.46648740768433 4.42361688613892 3.70594906806946 3.16031837463379 2.78271818161011 2.43134546279907 2.15971899032593 1.98857164382935 1.84664833545685 1.70028722286224 1.58936285972595 1.46620345115662 1.37479889392853 -1.65570867061615 -0.429097235202789 5.52467107772827 17.4606132507324 4.33070611953735 2.60922527313232 1.87365436553955 1.29882168769836 -0.408767402172089 0.866990804672241 1.44272267818451 5.38486194610596 23.6618385314941 10.0104331970215 8.51529693603516 4.96394777297974 4.05645418167114 3.58009147644043 3.53210616111755 9.93919944763184 4.98989248275757 3.51456546783447 2.31547594070435 1.48672664165497 1.21313345432281 4.26693487167358 1.0430873632431 5.80268716812134 4.11328792572021 0.149595901370049 0.789814889431 -0.161472961306572 17.7804050445557 6.62196969985962 43.717960357666 24.7020034790039 16.2943668365479 11.9851570129395 9.06054782867432 7.10524129867554 3.90645885467529 0.404147893190384 0.135472446680069 14.1775121688843 12.0651693344116 -0.78752464056015 8.66562747955322 5.21511459350586 42.0807571411133 24.6651935577393 17.3060207366943 13.4097681045532 11.0434341430664 9.40413761138916 8.2396354675293 7.23755264282227 6.50784540176392 5.9294376373291 5.47356843948364 5.06840848922729 4.73100805282593 4.3721661567688 4.0751748085022 3.80632281303406 3.60698962211609 3.42984294891357 3.29976582527161 3.16136717796326 2.98421025276184 2.83650732040405 2.71070861816406 2.58052229881287 2.46847128868103 2.3783061504364 2.3541431427002 2.81115174293518 3.76577520370483 2.2244086265564 2.07038021087646 1.9432235956192 1.82932472229004 1.15167105197906 0.360767066478729 17.1630439758301 34.2146263122559 19.773588180542 14.8164510726929 12.0481672286987 10.0795164108276 8.86891746520996 8.14977741241455 5.55985307693481 14.6358108520508 9.18214988708496 7.095299243927 5.64720964431763 5.35788679122925 4.95261287689209 7.97484397888184 3.62313389778137 23.5379085540771 11.8661594390869 7.54759693145752 5.25523328781128 4.29567623138428 4.06130886077881 3.9037299156189 1.27314043045044 3.14994668960571 12.301121711731 29.1228313446045 17.1135311126709 12.9871435165405 4.83462047576904 4.01225757598877 1.78351521492004 1.21757745742798 1.13960886001587 6.46525430679321 6.55209684371948 5.17305183410645 42.4040260314941 24.6518249511719 16.925235748291 12.9280099868774 10.4630537033081 8.77277660369873 7.52951622009277
1.02412843704224 1.01165199279785 0.997139811515808 0.971976637840271 0.940987706184387 0.89683210849762 0.8579021692276 0.829726934432983 0.807562530040741 0.828007161617279 0.77972275018692 0.748586893081665 0.728295266628265 0.694368004798889 0.670870542526245 0.650568187236786 0.630825400352478 0.607271254062653 0.578506588935852 0.556671977043152 0.529736578464508 0.507999122142792 0.381597727537155 0.108915492892265 0.0425098687410355 -0.18315976858139 -0.578718245029449 -0.724979519844055 -0.787908256053925 -0.893987655639648 -0.32537305355072 3.91472601890564 7.95556163787842 6.49397087097168 4.95114660263062 4.02638053894043 3.43005180358887 3.01371788978577 2.64751195907593 2.36627507209778 2.19594192504883 2.02504754066467 -1.77647376060486 52.2891998291016 1.44805502891541 4.67254447937012 7.61767196655273 4.10661172866821 0.469313651323318 1.91081809997559 20.8554916381836 12.3146142959595 3.22293472290039 0.465986460447311 0.0210196785628796 -0.0294414758682251 1.168781042099 13.9646339416504 13.2350873947144 8.9084005355835 6.5270414352417 4.9678692817688 4.36092948913574 7.81079387664795 4.64504051208496 3.78994631767273 5.53826427459717 2.78695821762085 1.88929641246796 1.92981469631195 1.73860800266266 1.39074897766113 0.46950551867485 0.401276916265488 0.119810402393341 0.0631988942623138 1.55154883861542 0.754043519496918 9.51959419250488 3.41940975189209 0.0294184423983097 47.7856483459473 27.9108963012695 18.7981033325195 13.8358211517334 10.459174156189 2.079674243927 30.4333324432373 14.7641048431396 6.38842439651489 4.60221862792969 3.25965237617493 2.67437815666199 -1.19679141044617 46.0445747375488 34.7328186035156 24.9929656982422 19.3957500457764 16.0008602142334 13.6691265106201 11.9348020553589 10.5131998062134 9.37332153320312 8.49759387969971 7.790931224823 7.19816970825195 6.66545677185059 6.15875339508057 5.68561792373657 5.27959728240967 4.97513580322266 4.72344779968262 4.48635578155518 4.23732566833496 4.03643846511841 3.84762859344482 3.67855000495911 3.48608541488647 3.31326484680176 3.15681433677673 3.10857129096985 3.18709015846252 3.42906737327576 2.90219068527222 2.71866512298584 2.55800604820251 2.41114807128906 2.23747658729553 1.27204084396362 2.65926432609558 32.4960594177246 18.6280422210693 13.2883100509644 10.2137184143066 8.21257495880127 7.00946092605591 6.30029964447021 5.41945219039917 4.99320554733276 4.59604501724243 4.17930126190186 4.00498008728027 3.69191408157349 3.67542886734009 5.73122358322144 0.989166080951691 36.0758590698242 20.2885475158691 15.4322090148926 11.4828405380249 9.46337890625 8.37394237518311 0.325260251760483 0.368125736713409 12.0085783004761 7.35204172134399 17.1600589752197 23.4993419647217 10.5123977661133 5.52664566040039 2.37209558486938 1.79826772212982 4.62740325927734 1.64968407154083 1.47653996944427 0.985998451709747 36.9746780395508 20.8171806335449 28.6968784332275 18.0614814758301 14.730694770813 12.3899574279785 10.679741859436 9.35434246063232
1.97144877910614 1.91637551784515 1.86505794525146 1.82117891311646 1.76283586025238 1.70176768302917 1.64485228061676 1.59380507469177 1.54878997802734 1.5070104598999 1.47436857223511 1.44045221805573 1.39995229244232 1.35666131973267 1.31204915046692 1.266446352005 1.22433292865753 1.19039928913116 1.15600609779358 1.12213528156281 1.09203612804413 1.06340730190277 0.137556448578835 0.110614962875843 0.0472851172089577 -0.0532194525003433 -0.143284693360329 -0.658821046352386 -0.70317804813385 -0.758358120918274 -0.823625564575195 1.25679910182953 6.58105278015137 6.03060626983643 5.52495908737183 4.44710111618042 3.66739296913147 3.1583845615387 2.77178621292114 2.46400737762451 2.21453714370728 2.02123999595642 1.7068510055542 -1.60048615932465 2.10845613479614 -1.65859508514404 9.32782077789307 -0.917799174785614 14.4415349960327 11.3032817840576 8.50389003753662 5.5169506072998 9.54370021820068 1.1443657875061 7.09663486480713 1.09819436073303 5.74143695831299 1.20292282104492 0.805915653705597 21.1975059509277 7.16143941879272 5.31191110610962 9.02381896972656 5.47465038299561 3.63521122932434 2.2564709186554 15.4351625442505 3.09364891052246 1.33876574039459 4.136390209198 6.39209461212158 3.51337313652039 1.12612891197205 0.680450201034546 0.22504386305809 0.0557454489171505 -0.0643070042133331 8.0720329284668 18.4225902557373 3.85048294067383 3.78082227706909 1.98118555545807 43.8327751159668 24.676456451416 16.2381553649902 11.7179527282715 8.66683769226074 1.61734580993652 26.6508674621582 8.33645248413086 -0.813647866249084 48.5755157470703 10.2065706253052 9.4752950668335 26.8540287017822 -1.17022705078125 50.1897468566895 31.2419033050537 22.3857936859131 17.500940322876 14.3887052536011 12.1665239334106 10.4659032821655 9.19614505767822 8.20138072967529 7.43182468414307 6.77920246124268 6.21295166015625 5.69294881820679 5.28822946548462 4.92576265335083 4.56542348861694 4.30657625198364 4.0814528465271 3.89126658439636 3.70145082473755 3.53189134597778 3.32615232467651 3.14649724960327 2.97856545448303 2.91049456596375 3.45457458496094 3.69296050071716 2.73112463951111 2.52908849716187 2.35597109794617 2.20424151420593 2.04815936088562 1.09649407863617 6.06606245040894 26.9459590911865 15.0957012176514 10.5714588165283 8.15200901031494 6.62676525115967 5.68880796432495 5.14478063583374 4.55748224258423 4.20235967636108 3.87910389900208 3.53216671943665 2.37162637710571 8.52755355834961 6.33620166778564 6.25170373916626 5.25739288330078 4.13564682006836 4.10332250595093 3.64956569671631 3.23781108856201 3.00337266921997 -0.150647014379501 34.3989067077637 29.3865528106689 21.3197708129883 16.35080909729 13.9637861251831 3.78176116943359 15.3368358612061 18.6549987792969 8.99878787994385 3.36742615699768 2.27337741851807 3.78314113616943 2.29886865615845 6.31398057937622 1.89286994934082 40.8555030822754 30.913158416748 21.8131713867188 16.8802490234375 13.6905174255371 11.4939012527466 9.86565208435059
1.23684930801392 1.21390175819397 1.1941967010498 1.18133926391602 1.16487598419189 1.14543163776398 1.03925311565399 1.0097918510437 0.984154105186462 0.959280669689178 0.929799675941467 0.896247804164886 0.873009562492371 0.856355845928192 0.829615890979767 0.79748547077179 0.768000304698944 0.737155795097351 0.717456221580505 0.691121459007263 0.670348048210144 0.63679563999176 0.607448518276215 0.578064620494843 0.526187837123871 0.435547083616257 -0.21553473174572 -0.297521203756332 -0.325885087251663 -0.368102937936783 -0.428380310535431 1.61786019802094 -0.734841644763947 12.394642829895 10.245020866394 9.45738887786865 7.75201559066772 6.32243633270264 5.34578609466553 4.62941074371338 4.08709287643433 3.68560838699341 -1.50185739994049 0.396010786294937 5.2553129196167 -0.993865847587585 -0.00246160011738539 -1.07299721240997 -1.32732903957367 29.5304393768311 10.2877330780029 9.11729621887207 5.27938747406006 6.11499166488647 3.41005611419678 1.52941286563873 2.21402335166931 1.19975256919861 8.07066631317139 3.00650143623352 2.20470356941223 1.84781932830811 2.9653754234314 11.6017599105835 2.52796816825867 1.85044753551483 10.2101564407349 1.38794469833374 0.915612041950226 3.89733004570007 1.49762046337128 0.86992084980011 6.26127624511719 0.591687738895416 0.246568620204926 -0.155983433127403 17.9413318634033 7.22688817977905 14.2046718597412 3.98277068138123 5.05491542816162 1.00430333614349 0.334961146116257 46.3792572021484 26.7749538421631 17.8985633850098 12.8534297943115 9.37784862518311 -0.395683854818344 0.609667003154755 -0.699477910995483 43.439094543457 11.5225028991699 23.9294013977051 11.4402170181274 9.42577457427979 8.09028816223145 7.15809202194214 6.38531398773193 5.85288286209106 5.36771678924561 4.94101428985596 4.53980493545532 4.19850587844849 3.87720322608948 3.61222696304321 3.38508820533752 3.20584201812744 3.04207897186279 2.87743425369263 2.67627167701721 2.53972697257996 2.43605303764343 2.33743691444397 2.26649451255798 2.18778276443481 2.12340068817139 2.02424621582031 1.92845344543457 1.85103702545166 1.80827474594116 2.16715478897095 3.03068947792053 1.84563434123993 1.62974524497986 1.48810827732086 1.38098955154419 0.95062792301178 0.636724948883057 12.9481153488159 13.9371719360352 9.62231349945068 7.48233795166016 6.18399572372437 5.15465974807739 4.41917324066162 4.01920223236084 3.55947041511536 3.2361011505127 2.93835806846619 2.60329723358154 2.24096512794495 2.11506962776184 1.89675724506378 6.15502119064331 1.2876433134079 13.4951839447021 9.56318664550781 6.83068895339966 0.143793791532516 17.100025177002 3.78627896308899 20.4363899230957 16.9817867279053 11.348295211792 8.77188587188721 7.4344048500061 6.63429069519043 5.7858190536499 2.48865103721619 2.80960631370544 1.07279121875763 0.0299088340252638 17.9647960662842 9.86124038696289 6.05521726608276 4.41600894927979 42.937931060791 30.6549167633057 21.7508239746094 16.8340358734131 13.6889209747314 11.483344078064 9.90832138061523
