NCOLS 172
NROWS 31
XLLCORNER 353728
YLLCORNER 6699312
CELLSIZE 16 
NODATA_value -3.4e+38 
0.227911993861198 0.159905821084976 0.0883878320455551 0.0681120157241821 0.0626441165804863 0.020109361037612 -0.0267261024564505 -0.0442822240293026 -0.153682664036751 -0.22880445420742 -0.2735216319561 -0.273704260587692 -0.235155269503593 -0.191450327634811 1.20800232887268 -0.145647600293159 -0.176541015505791 -0.240736722946167 -0.307575196027756 -0.370406776666641 -0.413670748472214 -0.503067970275879 -0.563517510890961 -0.600657165050507 -0.64247453212738 -0.682793259620667 -0.726633608341217 -0.494787693023682 -0.448464632034302 -0.261824429035187 -0.0986314862966537 0.0113883689045906 -0.0619646832346916 -0.185970738530159 -0.279281675815582 -0.289117872714996 -0.192309617996216 -0.127116784453392 -0.0485517270863056 -0.066989466547966 -0.214030802249908 -0.230805858969688 -0.186411589384079 -0.168365240097046 -0.102718606591225 -0.114630304276943 -0.0764745846390724 -0.197849586606026 -0.324795842170715 0.775878190994263 1.70774948596954 3.12881326675415 5.80593538284302 4.91084432601929 4.03817558288574 3.29526686668396 5.86225080490112 4.74227046966553 5.27839851379395 4.497145652771 3.79671669006348 3.32296013832092 2.96836280822754 2.52339386940002 1.99746513366699 1.64535415172577 1.27651751041412 0.93449729681015 0.639571309089661 0.61638206243515 0.670862853527069 1.51932942867279 3.71160006523132 3.19359397888184 4.17765665054321 5.36719655990601 5.05375957489014 4.51762676239014 3.78739714622498 2.86356353759766 2.45385670661926 2.40296792984009 2.43705725669861 2.39127373695374 2.41055583953857 2.52655410766602 2.93131351470947 3.32404708862305 3.64747929573059 4.06013250350952 4.64096641540527 4.82080221176147 4.82264947891235 4.82835006713867 4.84497499465942 4.9520525932312 5.21157217025757 5.19008445739746 5.28801679611206 7.48047065734863 9.74711894989014 12.1269445419312 13.7145500183105 13.9814014434814 13.2840261459351 12.0654096603394 11.3270025253296 10.7967653274536 10.3791837692261 9.43158435821533 8.32146263122559 6.03677558898926 4.31050062179565 3.5595486164093 2.97770404815674 2.58547616004944 2.13514566421509 1.77467918395996 1.47502052783966 3.18021869659424 5.91112899780273 6.419114112854 6.78078508377075 7.7690896987915 2.56755018234253 1.04716897010803 6.62077522277832 7.36515712738037 4.27113199234009 5.36356735229492 6.74342679977417 11.3564729690552 22.6464176177979 23.0471229553223 25.9029674530029 21.3395004272461 18.9463558197021 15.406964302063 12.1382751464844 8.67306709289551 6.31042432785034 5.39717245101929 4.85371685028076 4.08035039901733 5.32655811309814 6.42177534103394 7.68004608154297 7.26542568206787 7.04663562774658 5.76687812805176 4.37017393112183 1.90618658065796 1.32633686065674 1.15548384189606 3.67710542678833 5.11160564422607 4.2060284614563 1.6702960729599 1.5456680059433 2.25115156173706 2.90010643005371 3.6210253238678 4.39349031448364 4.92114019393921 4.91821908950806 4.32076072692871 5.69771862030029 8.39173221588135 3.86210918426514 2.34195256233215 1.49273300170898 0.90448397397995
0.181761592626572 0.108055084943771 0.0803660601377487 0.132521599531174 0.130667135119438 0.103490248322487 0.0538326166570187 -0.0183439292013645 -0.0334166437387466 -0.0290925018489361 -0.106991469860077 -0.15789170563221 -0.188476830720901 -0.156614452600479 -0.108657255768776 -0.147288903594017 -0.180064409971237 -0.234247639775276 -0.302024632692337 -0.363966554403305 -0.424614906311035 -0.492017179727554 -0.56840842962265 -0.611744701862335 -0.658852100372314 -0.704877138137817 -0.744107007980347 -0.485930740833282 -0.493271291255951 -0.416455388069153 -0.47445946931839 -0.517915189266205 0.0519865863025188 -0.110773243010044 -0.215296149253845 -0.116420716047287 -0.133224681019783 -0.0325761400163174 0.0407431162893772 0.106187000870705 -0.0304520521312952 -0.0694998800754547 -0.061898835003376 -0.00139212817884982 0.0755688026547432 0.102443039417267 -0.0385394059121609 -0.238990664482117 -0.351155251264572 -0.341469377279282 1.04530537128448 1.9027613401413 4.26690578460693 6.0276985168457 3.51833462715149 3.8154137134552 5.45075416564941 6.27134704589844 5.45174932479858 5.01259899139404 4.12786626815796 3.53818321228027 2.9950065612793 2.27034521102905 1.74724042415619 1.33716475963593 1.01287257671356 0.806295096874237 0.664302945137024 0.72924679517746 0.966374218463898 0.819423377513885 2.53950691223145 4.06499576568604 4.95592641830444 6.35807418823242 6.13181066513062 5.09849882125854 3.91266560554504 2.83340072631836 2.77900576591492 2.86546111106873 2.9153790473938 2.89192914962769 2.95814299583435 3.08488917350769 3.32906460762024 3.68134307861328 4.11769342422485 4.64626550674438 5.01094722747803 5.03023099899292 5.04240036010742 5.07388496398926 5.19979429244995 5.46374607086182 5.41755104064941 9.80815601348877 12.1162548065186 14.4574174880981 16.5952434539795 18.0513877868652 17.309663772583 16.4784030914307 14.7426118850708 14.0743417739868 13.4236650466919 12.1923093795776 10.8335380554199 9.9000301361084 8.28954124450684 6.40647840499878 4.41070652008057 3.77450466156006 3.1976203918457 2.74984622001648 2.27430248260498 1.80472159385681 1.41862976551056 7.11328744888306 7.1094069480896 7.25745105743408 5.07189273834229 1.45022451877594 -0.37563693523407 -1.13221991062164 2.32020020484924 4.72586870193481 3.94906306266785 4.23701095581055 4.14508390426636 5.88041114807129 18.2657489776611 20.7534980773926 23.5659847259521 22.7937393188477 18.7022800445557 14.44553565979 9.91153049468994 7.79938554763794 6.12230777740479 5.11472749710083 4.7558765411377 5.47513341903687 6.54150295257568 5.69507884979248 7.58496713638306 7.94047832489014 6.65074491500854 5.83578491210938 4.10275459289551 1.90034413337708 1.26456344127655 1.19076502323151 1.51952242851257 2.48402404785156 2.14968752861023 2.4652853012085 2.43807053565979 2.91619420051575 3.98289752006531 5.12323522567749 5.29801988601685 5.57396030426025 4.60402202606201 4.19432020187378 3.28610849380493 3.71173453330994 3.49498867988586 1.60041677951813 0.799873173236847 3.68318486213684
0.104293778538704 0.135717421770096 0.157241001725197 0.184702128171921 0.188597619533539 0.20728574693203 0.183872759342194 0.146351769566536 0.0914622321724892 0.0365638062357903 -0.0388920977711678 -0.0396506860852242 -0.0427350848913193 -0.0842571035027504 -0.101134277880192 -0.136474415659904 -0.177579134702682 -0.223187848925591 -0.292730927467346 -0.359630972146988 -0.424410998821259 -0.480394631624222 -0.570392906665802 -0.618181049823761 -0.66641902923584 -0.715779900550842 -0.757413804531097 -0.784332394599915 -0.604295253753662 -0.434531837701797 -0.471887022256851 -0.589315235614777 -0.149825781583786 0.140050575137138 -0.0445295758545399 0.0508081465959549 -0.0160377342253923 0.051883552223444 0.156208142638206 0.27943879365921 0.157429561018944 0.0946660488843918 0.10686531662941 0.177992433309555 0.269940078258514 0.289948642253876 -0.00820624828338623 -0.159242436289787 -0.166239991784096 -0.262454479932785 1.53441619873047 1.47829556465149 1.51402044296265 3.51038599014282 5.02183246612549 5.90714359283447 7.26017904281616 6.38352298736572 5.74055004119873 4.85758018493652 4.11647939682007 3.61332011222839 2.65328741073608 2.05324673652649 1.40637278556824 1.05503737926483 0.876241207122803 0.755544483661652 0.784232437610626 0.794249892234802 1.02484393119812 1.24779999256134 1.47768747806549 3.00277256965637 6.50755977630615 7.42009210586548 5.95662879943848 5.19484901428223 4.03053951263428 3.22062802314758 3.35587120056152 3.39825630187988 3.41135835647583 3.44982051849365 3.53486943244934 3.66681623458862 3.8719654083252 4.26549863815308 4.82749891281128 5.15715360641479 5.25041246414185 5.27419185638428 5.31571626663208 5.46929454803467 5.7140474319458 5.4444055557251 5.44733905792236 10.119291305542 19.2834663391113 29.859468460083 25.9428234100342 22.6634120941162 21.5369548797607 19.3519439697266 18.5041217803955 16.6075382232666 14.6536827087402 12.827184677124 11.6514596939087 9.98529243469238 8.43480491638184 6.47152090072632 4.63565874099731 3.8617148399353 3.25545811653137 2.77536463737488 2.24468398094177 2.32199382781982 1.08627319335938 4.02534914016724 5.36940813064575 1.66694521903992 3.1412558555603 0.949465453624725 -1.06260204315186 -1.32079243659973 1.28231525421143 4.03311538696289 4.55356025695801 4.87070417404175 4.19382667541504 5.0157265663147 14.8874988555908 21.6756553649902 26.2411422729492 26.1577777862549 18.4193172454834 11.0522966384888 9.06621265411377 7.12720680236816 5.38197469711304 4.11906099319458 3.46149015426636 2.94040083885193 4.62901544570923 6.72199153900146 8.77472972869873 8.06472396850586 7.29981184005737 5.37155914306641 3.72340536117554 1.82900869846344 1.41914474964142 1.12226068973541 1.06610143184662 2.49189758300781 3.15556621551514 3.56159257888794 3.68524837493896 4.61371850967407 6.00393486022949 6.73207092285156 5.83505153656006 5.12249517440796 4.83148622512817 3.88628149032593 2.98029899597168 2.43504929542542 1.92065525054932 0.890580594539642 0.355212986469269 0.378731518983841
0.19752125442028 0.235194101929665 0.230915084481239 0.218867585062981 0.258432179689407 0.257454961538315 0.251544088125229 0.248127236962318 0.186698079109192 0.122862376272678 0.0269530694931746 -0.0219958089292049 -0.0508441068232059 -0.0890535712242126 -0.0929879024624825 -0.12840461730957 -0.161858946084976 -0.199055060744286 -0.277006089687347 -0.354583382606506 -0.423245877027512 -0.4830442070961 -0.563274443149567 -0.617521166801453 -0.674440979957581 -0.723085105419159 -0.763953685760498 -0.615131795406342 -0.350137293338776 -0.410413771867752 -0.467067331075668 -0.656101703643799 -0.510338068008423 0.149825781583786 0.143904641270638 0.0956757366657257 0.204646870493889 0.197497427463531 0.335250824689865 0.416190713644028 0.374761819839478 0.306434571743011 0.309015095233917 0.402680456638336 0.426179826259613 0.244755297899246 0.211508676409721 0.149130433797836 -0.122309885919094 -0.337102770805359 0.624374747276306 0.622172653675079 0.621206820011139 1.2699670791626 4.6642804145813 8.81830310821533 7.78254556655884 6.361976146698 5.48922872543335 4.52502536773682 3.64693975448608 3.19106078147888 2.45863485336304 1.68471193313599 1.16234278678894 0.902432203292847 0.803542375564575 0.864138007164001 0.91936320066452 0.941130459308624 1.28081476688385 1.46659719944 1.59046304225922 3.10808777809143 6.56691932678223 6.74908494949341 6.58540296554565 5.15034151077271 4.53657531738281 3.64704203605652 3.78202033042908 3.82248950004578 3.84435677528381 3.90899419784546 4.05805969238281 4.2058253288269 4.50807762145996 5.01921415328979 5.35375452041626 5.56378078460693 5.49174642562866 5.55298280715942 5.70041227340698 5.85268354415894 5.59140825271606 5.58189582824707 5.60618495941162 5.7176685333252 14.7572546005249 31.4900436401367 34.3566284179688 28.9080238342285 27.2449836730957 26.4354095458984 21.4277477264404 19.1708698272705 15.8274173736572 13.7381925582886 11.4374504089355 10.0904397964478 8.40167999267578 6.77298164367676 5.17583513259888 4.16844987869263 3.86986994743347 3.0394332408905 6.57103776931763 4.3282151222229 0.903109133243561 0.539160847663879 0.326939046382904 -0.0784025713801384 -0.69553130865097 -1.02010691165924 -1.22016477584839 -1.54924142360687 -1.75045955181122 0.969474017620087 2.56839847564697 2.42787146568298 2.39148139953613 2.78795766830444 8.52403736114502 11.7842044830322 15.8900775909424 24.0362739562988 13.8202495574951 9.93324756622314 8.39770030975342 6.35702991485596 4.29518890380859 3.5700991153717 3.24740982055664 2.58949995040894 1.94694149494171 3.1401002407074 7.17027139663696 9.29571437835693 6.95662260055542 5.07092475891113 3.1586287021637 1.72387504577637 1.28842949867249 1.07042372226715 2.7196888923645 4.69807434082031 4.79910612106323 5.5201153755188 6.6518440246582 8.12148094177246 8.69844055175781 7.81009435653687 6.42473125457764 5.43614959716797 4.47888994216919 3.85083413124084 3.12425088882446 2.399733543396 1.74323689937592 0.945454061031342 0.456582963466644 0.373529523611069
0.275463104248047 0.275982290506363 0.309580951929092 0.335480719804764 0.312143206596375 0.301327168941498 0.297356426715851 0.274755209684372 0.236699163913727 0.158338099718094 0.083208329975605 -0.000910626433324069 -0.0367659628391266 -0.0857069417834282 -0.0842826589941978 -0.107113890349865 -0.106426499783993 -0.169181689620018 -0.252194851636887 -0.334140360355377 -0.414112031459808 -0.493275880813599 -0.544908046722412 -0.61461740732193 -0.674626469612122 -0.732101082801819 -0.777665555477142 -0.680835962295532 -0.340062946081161 -0.291139841079712 -0.530307114124298 -0.677383542060852 -0.571716010570526 -0.158915162086487 0.0974047556519508 0.296790421009064 0.458635270595551 0.442413419485092 0.507085502147675 0.649972677230835 0.602585732936859 0.54101300239563 0.583698570728302 0.597428321838379 0.458350479602814 0.437253475189209 0.323828876018524 0.181897059082985 -0.12938566505909 -0.28734689950943 0.113999456167221 -0.102620780467987 -0.205336704850197 -0.257227033376694 -0.296228349208832 5.26605987548828 6.90997171401978 6.60953760147095 5.23273324966431 4.12276840209961 3.25067138671875 2.35842990875244 1.91552925109863 1.40830111503601 1.08959400653839 0.830633580684662 0.90770697593689 1.03067541122437 1.12114942073822 1.35825622081757 1.61956453323364 1.60084974765778 1.71735394001007 2.61337685585022 6.00326108932495 3.91486644744873 5.19209957122803 6.07533407211304 4.07103109359741 4.03255033493042 4.09681940078735 4.19276428222656 4.2557053565979 4.35474443435669 4.5003981590271 4.8210506439209 5.63667678833008 5.9717869758606 6.22606134414673 5.99645614624023 5.77628517150879 5.78288555145264 6.00151205062866 5.84651660919189 6.06326103210449 5.92207145690918 6.1476936340332 3.76864385604858 3.85155129432678 22.3640232086182 32.733829498291 33.3767623901367 36.9218711853027 27.3720245361328 23.8267230987549 19.0065307617188 17.6786632537842 14.3626041412354 12.3222389221191 10.4417743682861 9.65596199035645 8.20440769195557 5.42787504196167 4.64936876296997 3.18042349815369 2.00901865959167 1.55978655815125 1.20058870315552 1.02001523971558 0.666479229927063 0.421183258295059 0.169324561953545 -0.319206893444061 -1.08201503753662 -1.34100067615509 -1.69035851955414 -1.92241621017456 -1.97018992900848 0.512994170188904 1.06615281105042 -0.139770463109016 0.112183503806591 5.08379554748535 7.21119403839111 8.28451728820801 14.0591106414795 11.213903427124 8.90649509429932 7.22221612930298 5.15593862533569 3.58782815933228 3.05248618125916 2.64574456214905 1.73849630355835 1.67487692832947 1.84432208538055 1.97818183898926 6.08894443511963 5.47348690032959 5.88494157791138 2.11543965339661 1.4025057554245 1.1503529548645 2.94795918464661 5.79592514038086 7.43890762329102 7.1376633644104 8.77675819396973 11.1607084274292 11.51207447052 11.0309448242188 8.79750347137451 7.02092933654785 6.48423433303833 5.13181209564209 3.92294907569885 3.13732933998108 2.33231616020203 1.67327666282654 1.46520960330963 1.24519598484039 0.665662229061127
0.348968535661697 0.394063711166382 0.407301217317581 0.388398289680481 0.368475794792175 0.34429144859314 0.325676292181015 0.314776211977005 0.264694839715958 0.193298652768135 0.0780573785305023 0.00750661501660943 -0.0333283729851246 -0.0722795054316521 -0.0496419630944729 -0.047741562128067 -0.0785506293177605 -0.105262972414494 -0.211522191762924 -0.311697065830231 -0.389202088117599 -0.473807662725449 -0.535132527351379 -0.610507965087891 -0.675074875354767 -0.743763148784637 -0.791552186012268 -0.824681997299194 -0.453651368618011 -0.372246652841568 -0.676376342773438 -0.569046854972839 -0.493213176727295 -0.43848317861557 -0.0521894320845604 0.596452713012695 0.68990957736969 0.751589238643646 0.823965132236481 0.783673763275146 0.779546141624451 0.846077799797058 0.820263743400574 0.642143547534943 0.646907806396484 0.612185955047607 0.589635074138641 0.385314404964447 0.00853203888982534 -0.181645020842552 -0.119381673634052 0.477276563644409 -0.164179474115372 -0.255209803581238 -0.296411007642746 1.86898052692413 5.7674708366394 5.84717655181885 5.27602100372314 3.71613693237305 2.63228869438171 1.92060399055481 1.41432201862335 1.52115368843079 0.901533782482147 0.941383242607117 1.07076632976532 1.34930109977722 1.5604807138443 1.88474345207214 2.05645680427551 1.95287609100342 1.94240641593933 2.33239793777466 2.83481097221375 3.13877248764038 3.81590414047241 4.54769563674927 4.11668109893799 4.26314830780029 4.34989547729492 4.47732543945312 4.74307060241699 5.83056783676147 7.30856800079346 7.26446771621704 7.08778238296509 7.03090000152588 6.50948524475098 6.10173463821411 5.91011714935303 6.00698614120483 5.66121530532837 8.11965751647949 8.84955024719238 6.78747129440308 5.30661678314209 3.26368618011475 2.65046668052673 7.2050142288208 14.3797655105591 13.5763168334961 29.2518901824951 32.5801620483398 24.6819362640381 20.6802272796631 19.038293838501 15.8401288986206 12.9015789031982 12.1726169586182 11.6466131210327 8.27850341796875 5.75752925872803 3.52734708786011 2.39601540565491 1.76964485645294 1.41366338729858 1.1933501958847 1.03203344345093 0.803664028644562 0.594012856483459 0.375871151685715 0.00496828788891435 -0.599011719226837 -1.33274018764496 -1.65169322490692 -1.90379893779755 -2.08769011497498 -0.823885440826416 -0.232460543513298 -0.353604853153229 -0.169398680329323 4.64941692352295 6.07115077972412 10.0323781967163 11.7641725540161 10.9132518768311 8.34131813049316 5.3414740562439 4.6277871131897 3.39210295677185 2.19452118873596 1.71418559551239 1.74381065368652 2.03437542915344 1.85956263542175 1.88552093505859 1.81013560295105 1.74610590934753 2.40833640098572 1.72143411636353 1.157599568367 1.3726395368576 3.85653233528137 5.42407512664795 7.17700386047363 12.316125869751 17.7490406036377 18.4539165496826 16.7701263427734 13.7044458389282 11.0608654022217 7.8474555015564 5.8636269569397 5.47365999221802 4.23914670944214 2.99775648117065 2.21598863601685 1.8896005153656 1.85259258747101 1.36023879051208 1.06193506717682
0.503197133541107 0.540359973907471 0.469631731510162 0.4490707218647 0.423436790704727 0.388353854417801 0.365746766328812 0.334632724523544 0.301549404859543 0.226675748825073 0.0830891951918602 -0.0109426202252507 -0.0337712801992893 -0.045084435492754 0.0148367555812001 -0.0423672497272491 -0.041368406265974 -0.0631594061851501 -0.144601702690125 -0.259944289922714 -0.366582214832306 -0.442491710186005 -0.524657905101776 -0.591397643089294 -0.674387991428375 -0.748482644557953 -0.799516379833221 -0.833035409450531 -0.710678935050964 -0.672268629074097 -0.56208747625351 -0.48749116063118 -0.433183252811432 -0.364486455917358 0.0692767947912216 0.731646060943604 0.960855484008789 1.00925540924072 1.02188909053802 0.961893558502197 0.983437359333038 1.06331670284271 0.921083986759186 0.852128386497498 0.832736968994141 0.821777105331421 0.782604873180389 0.628331422805786 0.271356195211411 -0.0979007333517075 -0.0282824896275997 1.40482485294342 -0.0863910764455795 -0.16253536939621 -0.204464733600616 -0.129640474915504 5.32926797866821 5.78515005111694 4.51226043701172 3.00946259498596 2.50548195838928 1.64296412467957 0.778363108634949 1.14640176296234 1.03185439109802 1.15576469898224 1.44883763790131 1.7377667427063 2.14239573478699 2.26960706710815 2.3023145198822 2.35848259925842 2.43934082984924 2.84630084037781 3.17758131027222 3.52840232849121 3.88909840583801 4.16749477386475 4.34583520889282 4.51602697372437 4.71916389465332 5.22198629379272 7.23635578155518 9.65410900115967 9.39541530609131 8.86660194396973 8.25310230255127 6.88599872589111 6.4359917640686 6.69687557220459 6.2225866317749 5.73508739471436 5.26171112060547 4.61325788497925 10.2516040802002 6.36329746246338 3.600834608078 4.40604019165039 2.48079872131348 2.46555876731873 5.86014795303345 6.56924533843994 11.4052467346191 20.2395153045654 23.1077098846436 23.3087882995605 19.127513885498 18.5826072692871 16.1600799560547 15.2829313278198 12.3986883163452 7.7536678314209 5.6517481803894 3.41315507888794 2.18157434463501 1.71346700191498 1.31383681297302 1.15114319324493 1.07604587078094 0.987108111381531 0.754537522792816 0.585707545280457 0.281825929880142 -0.143251031637192 -0.860834538936615 -1.47608149051666 -1.9506744146347 -2.16746068000793 -1.08716416358948 0.0703972801566124 -0.0930580571293831 -0.262075543403625 6.41657686233521 10.4705171585083 12.1006116867065 12.5780811309814 12.0439462661743 7.09221410751343 3.5302631855011 3.12695288658142 2.60722684860229 1.94763731956482 1.93000149726868 2.24492955207825 2.25934171676636 2.34486603736877 1.95306384563446 1.80804216861725 1.47645092010498 1.22508764266968 0.817895174026489 0.704182744026184 0.392072200775146 2.12824964523315 2.98838114738464 3.0862443447113 5.61872720718384 12.1942014694214 15.0729694366455 17.4456214904785 18.9786853790283 10.7952356338501 7.61541223526001 5.76562070846558 4.40637445449829 3.70194172859192 2.75614142417908 2.22154068946838 2.1368727684021 1.78815627098083 2.27973484992981 2.23248505592346
0.81676310300827 0.613090693950653 0.57598352432251 0.51487272977829 0.472449660301208 0.430873572826385 0.398026287555695 0.374376773834229 0.313673555850983 0.237951368093491 0.112911678850651 0.0182212572544813 -0.0316005311906338 -0.0313477888703346 -0.0306267254054546 -0.0254600830376148 -0.0309285800904036 -0.0428262278437614 -0.0775609388947487 -0.199959337711334 -0.316080570220947 -0.423328965902328 -0.495019882917404 -0.572401881217957 -0.662948191165924 -0.741158723831177 -0.805528223514557 -0.787174701690674 -0.54365998506546 -0.53331333398819 -0.455164402723312 -0.419564753770828 -0.357782393693924 -0.316655844449997 0.493580371141434 1.00226747989655 1.18919897079468 1.15833103656769 1.19999182224274 1.26402175426483 1.19096684455872 1.1161777973175 1.1012464761734 1.15734732151031 1.10133755207062 1.05872440338135 0.945578098297119 0.812019109725952 0.577678382396698 0.148633196949959 -0.0261810570955276 0.942145645618439 0.108506426215172 -0.0188424251973629 -0.121300652623177 -0.179630294442177 2.67232775688171 4.84907865524292 3.79518008232117 2.95228958129883 2.36738443374634 1.06975769996643 0.892467617988586 1.01171982288361 1.40515303611755 1.838662981987 2.14970350265503 2.31913280487061 2.50747847557068 2.53220987319946 2.52845788002014 2.59625387191772 2.94129467010498 3.24095606803894 3.69929623603821 4.01964950561523 4.24273824691772 4.42392587661743 4.5944881439209 5.00720071792603 5.50043487548828 10.2879657745361 11.6078271865845 11.071403503418 10.8900375366211 9.05150604248047 7.42016839981079 6.60515737533569 6.91116333007812 6.61961126327515 6.40491390228271 5.50414228439331 4.56572580337524 4.18623685836792 7.11408615112305 4.65872478485107 3.06910681724548 2.94977736473083 2.57116174697876 2.35851669311523 2.31999039649963 2.6685483455658 3.09238076210022 6.89813899993896 12.4868583679199 19.3155517578125 21.7940425872803 25.165132522583 28.2937183380127 19.1606636047363 13.6306552886963 7.51896095275879 4.9857497215271 2.92512059211731 2.09035181999207 1.7782256603241 1.30622708797455 1.15884077548981 2.70609974861145 1.77118182182312 0.9468634724617 0.718264818191528 0.45007187128067 0.0325680896639824 -0.512128472328186 -1.10613679885864 -1.57568597793579 -2.06397175788879 -2.18538594245911 0.346379935741425 1.19397342205048 0.611365139484406 3.63481545448303 14.9680500030518 13.3875827789307 16.1760959625244 12.3266916275024 6.89711999893188 2.54182624816895 2.31951594352722 2.13491868972778 2.30817604064941 2.53562235832214 2.50104355812073 2.63052201271057 2.3318727016449 2.14238595962524 1.70299875736237 1.36960470676422 0.911495447158813 0.558032989501953 0.190288454294205 -0.0209953133016825 -0.385603547096252 -0.34083566069603 -0.965452313423157 -1.23782646656036 3.74307179450989 8.24696254730225 7.26009368896484 13.9183759689331 9.7647066116333 7.05326366424561 4.96054124832153 3.49727416038513 2.6873779296875 2.4775915145874 2.39655733108521 2.5502622127533 3.0357449054718 3.29363822937012 2.58873844146729
1.2068920135498 0.888482391834259 0.769798755645752 0.635356068611145 0.574084043502808 0.473203033208847 0.402020215988159 0.36472076177597 0.31771194934845 0.228544354438782 0.122931249439716 0.00703415274620056 -0.0131222764030099 -0.0299157258123159 -0.0235426444560289 -0.0229749511927366 -0.0261855646967888 -0.0222409199923277 -0.0584690682590008 -0.143411874771118 -0.278852254152298 -0.395151197910309 -0.483666926622391 -0.561132967472076 -0.649989068508148 -0.729673802852631 -0.785588622093201 -0.562194526195526 -0.424423903226852 -0.294153481721878 -0.187960535287857 -0.334345430135727 -0.301440924406052 -0.298950284719467 0.384957790374756 1.32077813148499 1.42775177955627 1.38654673099518 1.48673605918884 1.62318968772888 1.64297914505005 1.37842798233032 1.4106879234314 1.44807529449463 1.42124903202057 1.24902248382568 1.063551902771 0.979075253009796 0.766030669212341 0.259567558765411 0.122136138379574 0.614021122455597 0.246200114488602 0.185733452439308 0.100250959396362 -0.0450996197760105 0.189814850687981 2.56870698928833 3.4597270488739 2.95183181762695 1.61620771884918 0.991230070590973 1.05059373378754 1.21675205230713 1.88406705856323 2.26264524459839 2.45236444473267 2.68630075454712 2.8258638381958 2.81328916549683 2.79593515396118 3.04990983009338 3.34601616859436 3.81744384765625 4.20635414123535 4.37198257446289 4.51754140853882 4.71618366241455 5.22323179244995 5.579674243927 8.29500675201416 12.5844144821167 12.3498668670654 13.2844505310059 13.8980627059937 10.3793287277222 6.65435361862183 6.97830677032471 6.68658494949341 6.52023553848267 5.31389427185059 4.65812921524048 4.18687391281128 3.87853860855103 3.47819232940674 3.21803164482117 2.95183086395264 2.9026575088501 2.71391224861145 2.41523313522339 2.89197421073914 3.49398231506348 3.69494271278381 3.904709815979 6.41733980178833 12.0805616378784 15.1902723312378 17.5575180053711 27.0499267578125 26.494441986084 15.9377002716064 7.90721464157104 4.79521512985229 2.7498300075531 1.98102581501007 1.72759926319122 1.42606091499329 1.20999622344971 1.98833131790161 2.27554941177368 1.06325602531433 0.827494204044342 0.52589613199234 0.121217057108879 -0.34732711315155 -0.823136925697327 -1.28357839584351 -1.7074521780014 -2.12460708618164 -0.229157105088234 2.02007174491882 0.323855102062225 1.74056148529053 13.4446859359741 19.7692584991455 16.3617057800293 12.1336994171143 7.08452987670898 2.7612087726593 2.26593446731567 2.33708715438843 2.79563570022583 2.85131311416626 2.95096731185913 2.58147525787354 2.23525786399841 1.72915601730347 1.43845629692078 1.1272177696228 0.827303230762482 0.223079845309258 -0.119960203766823 -0.371577680110931 -0.761020064353943 -0.836518883705139 -1.32089328765869 -1.58885622024536 -1.57862913608551 6.22338390350342 8.6041316986084 9.63091087341309 9.04618835449219 6.05123567581177 4.17487382888794 2.79817223548889 2.63753867149353 2.56185746192932 3.59866976737976 4.51795768737793 4.53059387207031 3.8951404094696 2.85109901428223
1.03200888633728 1.22222411632538 1.15199220180511 0.921224236488342 0.734166741371155 0.549641788005829 0.397284954786301 0.333367019891739 0.279631316661835 0.171927243471146 0.0350332334637642 -0.0064018308185041 0.00763571308925748 -0.00689028669148684 -0.0110746175050735 -0.0187802445143461 -0.00515012769028544 -0.0261080618947744 -0.0445159934461117 -0.0944972559809685 -0.237173601984978 -0.368192940950394 -0.469472825527191 -0.55209344625473 -0.652252852916718 -0.735962927341461 -0.665515899658203 -0.53123539686203 -0.446531713008881 -0.3986456990242 -0.324910134077072 -0.29492923617363 -0.283568948507309 0.270701169967651 0.544838309288025 1.1151659488678 1.6887469291687 1.77975106239319 1.95408594608307 1.76135075092316 1.9129387140274 1.83764171600342 1.73107087612152 1.72418057918549 1.6325511932373 1.48109495639801 1.28868055343628 1.09596192836761 0.746298134326935 0.446522355079651 0.260776698589325 0.401805728673935 0.402276188135147 0.357095003128052 0.381595522165298 0.336227029561996 0.402290523052216 0.487966686487198 3.0652379989624 2.53918862342834 1.8318886756897 1.2739325761795 1.36938846111298 1.96213376522064 2.33051633834839 2.5572338104248 2.83609843254089 2.99630856513977 3.15579509735107 3.15142846107483 3.18804931640625 3.47068810462952 3.88718771934509 4.30426454544067 4.5302619934082 4.68381118774414 5.04005002975464 5.74732828140259 5.5954966545105 8.17114925384521 14.4396324157715 15.3896446228027 12.5110359191895 11.4432497024536 9.95831203460693 7.91099977493286 7.02493476867676 6.68782043457031 6.6047682762146 5.62976455688477 4.90018129348755 4.45846366882324 4.06485223770142 3.57533693313599 3.2519862651825 3.15201950073242 3.11917948722839 3.05432367324829 2.89029240608215 3.16311931610107 3.62682485580444 3.89550375938416 3.99911618232727 4.04612112045288 4.11700201034546 8.38176727294922 7.74079132080078 11.5669326782227 17.7693138122559 32.7246017456055 18.3257694244385 8.34092140197754 4.90747213363647 2.58832716941833 2.00134420394897 1.66270482540131 1.4425311088562 1.21530032157898 1.19904017448425 3.60216236114502 1.21101140975952 1.00119304656982 0.677219152450562 0.221895381808281 -0.232044965028763 -0.603754818439484 -0.986074924468994 -1.43933284282684 -1.84803438186646 -2.10828423500061 -0.973529756069183 -0.917057275772095 -0.544384360313416 4.59005165100098 17.6763248443604 17.2561511993408 13.0462713241577 6.44061326980591 2.70939970016479 2.48422622680664 2.85053610801697 3.11857414245605 3.22752928733826 2.85537648200989 2.55984663963318 1.89787912368774 1.48004972934723 1.17349827289581 1.3361349105835 1.02955877780914 0.369000822305679 -0.17454020678997 -0.467656463384628 -0.587232649326324 -0.948760092258453 -1.32207477092743 -1.52104616165161 -1.67720794677734 -1.39315152168274 5.4912896156311 7.30896329879761 6.61610460281372 5.08419799804688 3.29322910308838 2.83765053749084 2.59970855712891 4.22441625595093 7.2308349609375 6.50994348526001 5.85450792312622 4.78021287918091 2.93820309638977
0.54282933473587 0.814083218574524 1.22877979278564 1.39767158031464 1.05163013935089 0.666377902030945 0.412640124559402 0.294508188962936 0.204420775175095 0.0552169308066368 0.0512524768710136 0.17142391204834 0.142890408635139 0.00337435025721788 -0.00584101723507047 -0.00173187919426709 -0.00880594737827778 0.00255728885531425 -0.0098502654582262 -0.0368689708411694 -0.188840880990028 -0.33053120970726 -0.436100840568542 -0.542106151580811 -0.613191902637482 -0.593098759651184 -0.516092777252197 -0.318479597568512 -0.258709043264389 -0.283050656318665 -0.25396454334259 -0.26649597287178 -0.250212371349335 0.926047801971436 0.964312553405762 1.41111254692078 2.02105569839478 2.16279768943787 2.29410767555237 2.17034864425659 2.33817553520203 2.27783489227295 1.99559700489044 1.91397106647491 1.8755589723587 1.78777778148651 1.55353212356567 1.17353212833405 0.851884663105011 0.654940068721771 0.403774946928024 1.1489315032959 1.30021941661835 1.03512132167816 0.641325652599335 0.655771672725677 0.535998702049255 0.571792900562286 0.888776361942291 1.28153324127197 1.40930962562561 1.58822083473206 2.09658455848694 2.4626989364624 2.67901420593262 2.95916509628296 3.14942359924316 3.32308006286621 3.4660804271698 3.69909024238586 3.78511476516724 4.11824798583984 4.48773336410522 4.69602346420288 4.97211503982544 5.40260934829712 7.9678783416748 5.86687326431274 5.19673252105713 5.10380458831787 6.81467151641846 11.3065490722656 12.4178743362427 9.38825798034668 9.84188938140869 7.18420743942261 6.74821758270264 6.76305437088013 5.88066959381104 5.26226377487183 5.09790563583374 4.80481958389282 4.28713369369507 3.86911940574646 3.67656230926514 3.47996234893799 3.40460109710693 3.30026245117188 3.59239172935486 4.08365678787231 4.15644693374634 4.17115497589111 4.16402721405029 4.14440870285034 3.96410751342773 3.89898920059204 4.87253618240356 7.21009111404419 11.6185073852539 31.2640018463135 17.2477245330811 9.21532440185547 5.3359112739563 2.47503352165222 1.96791839599609 1.61542904376984 1.45803892612457 1.31125438213348 1.27830624580383 2.52642464637756 3.47774314880371 1.36051428318024 0.909103095531464 0.432553142309189 -0.0166239459067583 -0.413013458251953 -0.670090317726135 -1.14603126049042 -1.60092389583588 -1.94961416721344 -2.10926246643066 -2.14743256568909 -2.17668867111206 0.0351986512541771 12.8334493637085 16.9608688354492 11.9015817642212 7.19195699691772 3.85797834396362 3.31315946578979 3.18222570419312 3.4494354724884 2.9998664855957 2.76052308082581 2.21696519851685 1.85596299171448 1.5460786819458 1.70385026931763 1.59955871105194 1.07193148136139 0.578406274318695 0.246920242905617 -0.00880137830972672 -0.419549256563187 -0.813835382461548 -1.05580472946167 -1.32155251502991 -1.2466481924057 -1.16310799121857 -0.482608169317245 3.79802656173706 4.56734371185303 3.98411250114441 2.9934983253479 2.70529747009277 1.56909668445587 3.12621307373047 6.25837659835815 7.81329441070557 8.89709377288818 4.84754419326782 2.05286550521851
0.422221690416336 0.354802578687668 0.544268488883972 0.704932510852814 0.862050890922546 0.746557593345642 0.350938975811005 0.207282155752182 0.0699046552181244 0.0860453918576241 0.00230375397950411 0.024640990421176 0.00625925650820136 -0.00145313690882176 0.00781421083956957 0.00353708770126104 0.0276708509773016 0.0287770796567202 0.0258683133870363 0.0200128201395273 -0.101220726966858 -0.280485451221466 -0.322538107633591 -0.317607015371323 -0.391159474849701 -0.392338871955872 -0.234986796975136 -0.214057445526123 -0.192119970917702 -0.236402034759521 -0.218781024217606 -0.204951122403145 -0.310757040977478 1.44427824020386 1.74912619590759 1.64574778079987 2.26396179199219 2.88958477973938 2.47817826271057 2.76112914085388 2.69152474403381 2.64724826812744 2.33149075508118 2.19502568244934 2.08663821220398 1.99559903144836 1.73713135719299 1.28313636779785 0.928298234939575 0.619449257850647 0.419227838516235 2.16053414344788 1.99617969989777 1.15828108787537 0.772189319133759 0.778444409370422 0.844291567802429 0.966689884662628 1.15777146816254 1.43963122367859 1.73477637767792 2.20560741424561 2.61986780166626 2.83556652069092 3.08644962310791 3.31959509849548 3.50641751289368 3.7040867805481 3.93428730964661 4.05770540237427 4.39776849746704 4.6380786895752 4.89351558685303 5.76170492172241 5.5065279006958 5.48284530639648 7.04514837265015 6.45451784133911 6.14351797103882 5.39542770385742 5.39657831192017 5.56557464599609 6.73389053344727 6.64022970199585 8.04676055908203 7.26192474365234 7.10506534576416 6.21858644485474 5.9813175201416 5.58581447601318 5.3528618812561 5.03159809112549 4.95036792755127 4.56813049316406 4.23128747940063 3.92005705833435 3.78170847892761 3.94183993339539 4.44428634643555 4.54123830795288 4.49651098251343 4.43015670776367 4.35247898101807 4.22654676437378 6.00526762008667 6.8762149810791 6.74707317352295 7.35744762420654 7.97863101959229 22.417013168335 15.2213544845581 9.20945644378662 6.25986623764038 2.62003183364868 2.06880879402161 1.7861784696579 1.66127097606659 1.6299489736557 1.51700222492218 1.47946619987488 3.25644111633301 1.43136525154114 1.27559244632721 0.77950644493103 0.251261025667191 -0.0813498944044113 -0.401473611593246 -0.857393085956573 -1.37213385105133 -1.77586996555328 -2.05495476722717 -2.14009594917297 -2.06280827522278 -2.10857152938843 6.14998531341553 12.4296655654907 10.4964256286621 8.3942403793335 5.54806327819824 4.17993783950806 4.00930166244507 3.49314594268799 3.12451267242432 2.46676468849182 2.16704154014587 1.92587232589722 1.99506342411041 1.92926919460297 1.51170253753662 0.920842945575714 0.54114443063736 -0.00519388262182474 -0.385125488042831 -0.705632030963898 -0.748453617095947 -1.11113333702087 -1.02967405319214 -0.920803546905518 -0.7901611328125 -0.186865210533142 1.57592082023621 2.69628834724426 3.22915029525757 3.01944184303284 1.66230690479279 1.1342545747757 1.12403798103333 2.03749465942383 2.67375421524048 6.9477710723877 4.20312690734863 1.49630784988403
0.206090927124023 0.252397090196609 0.31190687417984 0.435212790966034 0.450888961553574 0.460412472486496 0.181510463356972 0.0559747405350208 0.000307340815197676 0.00407624384388328 -0.000792212144006044 0.00380942481569946 0.001350192935206 0.0130804153159261 0.0159318260848522 0.0400141216814518 0.0487231686711311 0.0532173551619053 0.067787878215313 0.0671438872814178 -0.0525198206305504 -0.140321612358093 -0.118192061781883 -0.111307740211487 -0.125806659460068 -0.0953616946935654 -0.0617064647376537 -0.0972851291298866 -0.13503535091877 -0.207521989941597 -0.175968110561371 -0.282873213291168 -0.481755435466766 2.09397649765015 1.81760251522064 2.56756949424744 2.37843489646912 2.59775137901306 2.90585470199585 3.14842081069946 3.13130044937134 3.0015435218811 2.75054955482483 2.45187783241272 2.32732582092285 2.16569781303406 1.83720660209656 1.39964377880096 0.883368134498596 0.529646933078766 0.427788913249969 3.01029586791992 1.54711878299713 0.839325428009033 1.19843411445618 1.03862333297729 1.14194238185883 1.33212780952454 1.55118894577026 1.87982952594757 2.40984559059143 2.75553798675537 3.05416345596313 3.35560917854309 3.53138089179993 3.68851637840271 3.91053915023804 4.3449854850769 4.63032627105713 4.67749309539795 4.83633470535278 4.92893266677856 5.16508436203003 5.62823820114136 5.79485130310059 6.22836017608643 6.77889442443848 8.27637577056885 6.89332056045532 5.98466110229492 5.82498359680176 5.95221042633057 6.64509582519531 7.48994874954224 7.43249750137329 7.70082092285156 6.68278980255127 6.37749433517456 6.17510318756104 5.88066339492798 5.5106029510498 5.551185131073 5.35876560211182 5.10944843292236 4.71867799758911 4.345862865448 4.32650423049927 4.77877187728882 4.82120943069458 4.75458002090454 4.70186042785645 4.63135671615601 5.3050971031189 8.4241361618042 9.66318702697754 9.14558124542236 8.36662483215332 7.93146514892578 8.74083805084229 16.4862499237061 13.6784410476685 9.08576107025146 6.93050003051758 3.01645064353943 2.39610743522644 2.00931024551392 1.82425022125244 1.83039903640747 1.76563608646393 1.6955851316452 1.6604950428009 1.5960556268692 1.38849413394928 1.0244117975235 0.566120982170105 0.315252065658569 -0.0585634410381317 -0.570387721061707 -1.10473334789276 -1.64746129512787 -1.99550998210907 -2.12060928344727 -2.12510919570923 -0.0729280263185501 5.09408807754517 9.85056304931641 10.1631050109863 9.55752277374268 7.27931213378906 5.253249168396 4.39642238616943 4.23575115203857 3.08111166954041 2.62158870697021 2.34020352363586 2.34692358970642 2.1756649017334 1.91677439212799 1.40514647960663 0.911354899406433 0.32113641500473 -0.50533652305603 -0.795243203639984 -0.927340626716614 -0.93948632478714 -0.848309814929962 -0.738821625709534 -0.578641891479492 -0.0526268407702446 2.15815806388855 2.87279748916626 3.47423052787781 4.21794128417969 2.79046320915222 1.92502272129059 1.21748960018158 1.14744210243225 1.13031506538391 1.05360066890717 2.27963852882385 2.8118748664856 0.652278780937195
-0.018333438783884 0.106474846601486 0.156239539384842 0.267388075590134 0.197252735495567 0.137059152126312 0.0822639241814613 -0.00130655709654093 -0.00275655882433057 0.00401198957115412 0.026563199236989 0.0167396459728479 0.0142836412414908 0.0220091138035059 0.0508232116699219 0.0573198236525059 0.0753854438662529 0.102634564042091 0.110060691833496 0.0988405421376228 0.0531281717121601 0.0638416036963463 0.0897281765937805 0.0886905714869499 0.0700731724500656 0.0644279420375824 0.0463951006531715 0.0022993441671133 0.020328164100647 -0.154006496071815 -0.262855291366577 -0.481116026639938 -0.628473103046417 1.81922852993011 0.802001774311066 1.41771233081818 2.8248450756073 3.18015122413635 3.38982629776001 3.40661144256592 3.37399458885193 3.20077276229858 3.13480353355408 2.74233675003052 2.50782608985901 2.25420951843262 1.91192984580994 1.29313576221466 0.816073179244995 0.495318651199341 0.477431029081345 2.12988948822021 0.859055578708649 0.897582352161407 1.02179884910583 1.21043694019318 1.42875504493713 1.64321076869965 2.02026915550232 2.62577533721924 3.07078409194946 3.36467361450195 3.65221238136292 3.84101629257202 4.04729795455933 4.3302788734436 4.8993034362793 5.1518497467041 5.26927089691162 5.31058502197266 5.32251691818237 5.45831823348999 6.04143905639648 6.1391224861145 7.34432125091553 8.69425964355469 9.44708156585693 9.2065954208374 7.8865795135498 6.52029085159302 6.80394268035889 7.12838697433472 7.75863122940063 7.63322591781616 8.12254238128662 7.22731876373291 6.81999683380127 6.50794363021851 6.11871242523193 5.90336942672729 6.10313701629639 5.93263530731201 5.70542860031128 5.25315475463867 4.88124990463257 4.74313735961914 5.16254043579102 5.10330629348755 5.0106406211853 4.91841602325439 4.82903003692627 7.09988260269165 11.6917505264282 13.5119228363037 12.6437330245972 10.9138526916504 8.90857219696045 8.82007026672363 9.48455238342285 13.3742361068726 13.1144380569458 8.67311096191406 6.48025512695312 3.43654727935791 2.91315197944641 2.38398504257202 2.02988481521606 1.97258400917053 1.94934248924255 1.95762646198273 1.87404084205627 1.68576717376709 1.42838001251221 1.21693170070648 0.901271820068359 0.54108715057373 0.207575470209122 -0.32123988866806 -0.903663158416748 -1.4612877368927 -1.92633700370789 -2.09449672698975 -2.1407790184021 0.832306623458862 6.26606893539429 10.9731321334839 13.0886716842651 12.4921808242798 10.0001707077026 6.87366151809692 4.53442811965942 4.20015954971313 3.23288607597351 2.88041186332703 2.7762668132782 2.54558348655701 2.36362361907959 1.84453177452087 1.49414443969727 1.01818835735321 0.0927344262599945 -0.465453028678894 -0.884226024150848 -1.019291639328 -0.820771515369415 -0.685170710086823 0.251411855220795 2.05051803588867 4.30058240890503 4.21802759170532 3.51203465461731 5.9493727684021 5.65957403182983 4.39578485488892 1.88134169578552 1.4191290140152 1.24670922756195 1.16039168834686 1.14839291572571 1.23257422447205 0.887759208679199 1.0835382938385
-0.088297076523304 -0.0391203463077545 0.102427594363689 0.205665916204453 0.0998678803443909 0.0834856703877449 0.0580912865698338 0.00493294559419155 0.00522916531190276 0.00150333787314594 0.0148781798779964 0.0146673582494259 0.0259138438850641 0.0545049346983433 0.0737104266881943 0.081077829003334 0.112380273640156 0.143430858850479 0.163476824760437 0.205537423491478 0.221340388059616 0.238247156143188 0.326245814561844 0.329111903905869 0.281196594238281 0.19196043908596 0.111216455698013 0.141245499253273 0.0249714870005846 -0.208254158496857 -0.467493116855621 -0.626573622226715 -0.775451600551605 0.31686195731163 1.16140627861023 1.89524495601654 3.2201030254364 3.85209941864014 3.55951428413391 3.5010130405426 3.52584362030029 3.55289912223816 3.27259492874146 3.01889204978943 2.54936122894287 2.32720875740051 1.97089028358459 1.21629905700684 0.750663340091705 0.531282126903534 0.750905871391296 1.11515140533447 0.987838864326477 1.0960248708725 1.22372698783875 1.51720285415649 1.76924419403076 2.18910551071167 2.79148745536804 3.50977373123169 3.88804841041565 4.07850360870361 4.33160543441772 4.75632905960083 5.04923009872437 5.30887985229492 5.53571557998657 5.62709093093872 5.6256856918335 5.58134698867798 6.12184047698975 6.96820497512817 7.51620292663574 8.24887371063232 12.127555847168 12.2002143859863 10.8012943267822 9.91699600219727 9.4713020324707 9.37503051757812 8.23035430908203 8.76396083831787 7.87387275695801 8.53289031982422 7.75278472900391 7.30666351318359 7.13077402114868 6.71328210830688 6.36802911758423 6.58291006088257 6.48890256881714 6.28955125808716 5.78239107131958 5.41546010971069 5.11018133163452 5.54043579101562 5.41105651855469 5.22369432449341 5.0479941368103 4.89212703704834 8.3388786315918 15.5124778747559 18.238977432251 17.9874153137207 14.8181715011597 12.2621049880981 10.7623777389526 9.32008743286133 9.43721580505371 12.2646512985229 12.1077041625977 7.99794244766235 5.59751319885254 3.75447463989258 3.25294518470764 2.58221912384033 2.17730808258057 2.12591075897217 2.52285766601562 2.19804120063782 2.03941249847412 1.81681168079376 1.55174720287323 1.45043587684631 1.20435178279877 0.780866920948029 0.340847939252853 -0.198864370584488 -0.724085330963135 -1.20857453346252 -1.70694279670715 -1.9620543718338 -2.14998364448547 -2.18055081367493 6.16520500183105 11.6540155410767 17.3893413543701 15.5717153549194 11.1912622451782 7.7429027557373 5.25798559188843 4.42211961746216 3.51745009422302 3.24845004081726 2.82110857963562 2.56654191017151 2.27593517303467 1.94228804111481 1.66624844074249 1.14716064929962 0.455687642097473 -0.33423987030983 -0.828651368618011 -0.739302635192871 -0.63888692855835 -0.51637476682663 -0.0396266020834446 6.78712844848633 8.4054012298584 4.98950910568237 1.86449372768402 2.71978521347046 6.87576580047607 3.30081534385681 1.64948832988739 1.57014489173889 1.42858159542084 1.29306423664093 1.2218816280365 1.21752190589905 1.16120576858521 1.41571640968323
-0.0792967230081558 -0.0717332288622856 0.0175993274897337 0.0541116409003735 0.0162082817405462 -0.000969435786828399 0.00581770064309239 0.0270944647490978 0.00193733291234821 0.0158880539238453 0.0179756842553616 0.028363848105073 0.0615903474390507 0.0714115127921104 0.0848362147808075 0.153883472084999 0.150068998336792 0.166405647993088 0.250815033912659 0.36365470290184 0.380345433950424 0.573485195636749 0.517746388912201 0.521183609962463 0.41364324092865 0.312567949295044 0.266259640455246 0.12867845594883 -0.103402815759182 -0.30194479227066 -0.524304926395416 -0.718257665634155 -0.770964384078979 -0.433648079633713 -0.0317792445421219 1.19638729095459 2.68561887741089 4.06439018249512 4.09465360641479 3.86720061302185 3.8349027633667 3.58478116989136 3.4443039894104 3.13190269470215 2.89882254600525 2.49899864196777 2.235915184021 1.44693624973297 0.713222980499268 0.776165783405304 1.74516475200653 1.02878844738007 1.17392206192017 1.35088443756104 1.6066654920578 1.89350664615631 2.33933568000793 2.97201418876648 3.72308778762817 4.11612844467163 4.37781143188477 4.6578574180603 5.00204563140869 5.29478311538696 5.58394956588745 5.79420375823975 5.83920478820801 6.28155899047852 7.08798599243164 7.19560194015503 7.74483156204224 7.76998138427734 7.93198299407959 8.55372142791748 14.5870199203491 15.2469329833984 13.7061462402344 12.2032203674316 11.9720516204834 12.2494058609009 11.0010547637939 9.58088970184326 9.40300273895264 8.11983394622803 7.7014627456665 7.57980489730835 7.4439845085144 7.33328151702881 7.36833906173706 7.17138671875 6.93765020370483 6.41477489471436 5.95605134963989 5.53685331344604 5.90749359130859 5.73231792449951 5.47143316268921 5.2184853553772 4.92177295684814 9.11695957183838 18.6976261138916 23.8754196166992 28.9918231964111 21.1093406677246 17.87428855896 13.9636030197144 11.6253032684326 10.104248046875 9.14413833618164 12.7921743392944 9.54729652404785 7.31724405288696 4.92919254302979 3.85923027992249 3.18449735641479 2.61540031433105 2.26937651634216 2.25506138801575 3.08980798721313 2.22441148757935 2.088547706604 1.88674509525299 1.68014466762543 1.54331243038177 1.34434103965759 0.928222358226776 0.296443521976471 -0.118822790682316 -0.615320444107056 -1.07931518554688 -1.50374758243561 -1.80337083339691 -2.11462783813477 -2.33107566833496 1.19374179840088 8.00604438781738 17.5347728729248 17.5424308776855 13.2645673751831 9.63893508911133 6.17589855194092 4.44982194900513 4.22434663772583 3.36755514144897 3.08362913131714 2.7412223815918 2.43499350547791 2.29083347320557 1.7567892074585 1.17954385280609 0.391173660755157 -0.369801729917526 -0.560595870018005 -0.505318105220795 -0.3170006275177 0.133661702275276 0.193607419729233 0.877135336399078 8.04955387115479 5.9784779548645 1.89586246013641 1.34582090377808 3.86105155944824 3.06823348999023 1.68288326263428 1.61002123355865 1.52144742012024 1.41899645328522 1.35684418678284 1.28736543655396 1.51490640640259 1.61485266685486
-0.0684154778718948 -0.0524795576930046 0.061162956058979 0.0071660103276372 -0.000425011239713058 0.00907495524734259 0.00559102557599545 0.00264279707334936 0.0167879424989223 0.0311707071959972 0.058091402053833 0.0730451121926308 0.0714147761464119 0.119580648839474 0.291068345308304 0.600024700164795 0.613112807273865 0.38388204574585 0.450699329376221 0.541607618331909 0.779558658599854 0.723706185817719 0.708489120006561 0.701649010181427 0.660234034061432 0.427446633577347 0.273612320423126 0.0173981040716171 -0.1025215908885 -0.295569270849228 -0.574424564838409 -0.70006662607193 -0.800882816314697 -0.838692426681519 -0.882887601852417 0.0025114300660789 1.98956620693207 3.66260838508606 4.29175519943237 4.05661010742188 3.70778441429138 3.63250970840454 3.43272089958191 3.47451424598694 3.11184978485107 2.72834920883179 2.23228454589844 1.62652766704559 1.06415021419525 0.865128219127655 1.07522618770599 1.24878013134003 1.4718906879425 1.75861799716949 2.0323703289032 2.86301875114441 3.4279203414917 3.96872591972351 4.35865688323975 4.58653450012207 4.87138366699219 5.25651597976685 5.51927995681763 5.73434400558472 5.88469552993774 5.86187219619751 5.72556257247925 5.97358560562134 6.32064390182495 7.08622312545776 7.95013332366943 8.42783641815186 9.29882335662842 8.08800983428955 10.6726961135864 14.492205619812 16.8735160827637 16.5970096588135 15.1807670593262 13.9905338287354 13.083685874939 11.6787662506104 9.62522602081299 8.6566162109375 8.242431640625 8.15603256225586 8.0967845916748 8.17768573760986 8.04025554656982 7.72502613067627 7.14030647277832 6.57539987564087 6.22698640823364 6.25639486312866 6.05620956420898 5.7795934677124 5.43773078918457 6.38372325897217 4.38465976715088 5.83447217941284 10.6530876159668 13.1785926818848 27.5426406860352 29.0652294158936 19.1168689727783 16.3024787902832 12.2187900543213 10.0241823196411 8.47538375854492 9.37374019622803 8.49104595184326 6.23222923278809 4.40258550643921 3.56370949745178 2.96852684020996 2.56935739517212 2.35433840751648 2.30859518051147 2.30265378952026 2.22166204452515 2.06604480743408 1.88715481758118 1.63673889636993 1.45753514766693 1.20427465438843 0.734733998775482 0.210198417305946 -0.179034635424614 -0.39726322889328 -0.322618752717972 -0.831997573375702 -1.86283326148987 -2.11505818367004 -2.31928753852844 -2.39986848831177 2.14246773719788 13.2595338821411 18.1772937774658 14.8666830062866 10.1908359527588 7.27840900421143 4.65178537368774 4.4596095085144 3.79830527305603 2.97230529785156 2.63271713256836 2.86240577697754 2.51696538925171 1.84073412418365 0.968256056308746 0.0921413451433182 -0.315874695777893 -0.0761839225888252 0.115234062075615 0.463325828313828 0.589235424995422 0.396697670221329 0.479964226484299 1.18227136135101 5.08398723602295 1.84011006355286 1.52963888645172 1.66722166538239 1.78481733798981 1.67819511890411 1.5928647518158 1.50797963142395 1.46074390411377 1.41448152065277 1.60658407211304 1.69918406009674 1.9424797296524
-0.0511646643280983 0.0721166431903839 0.0161311067640781 0.00564588792622089 0.0332474671304226 0.00885761994868517 0.00423562340438366 0.020562332123518 0.0496084578335285 0.105205617845058 0.102535784244537 0.0972982943058014 0.122676365077496 0.298661977052689 0.632320582866669 1.16221594810486 1.14906203746796 0.866701364517212 0.745499074459076 1.0203937292099 0.930109739303589 0.895933151245117 0.967484891414642 1.00964176654816 0.714019060134888 0.421899557113647 0.247706040740013 0.0738230496644974 -0.112276703119278 -0.334424883127213 -0.509548544883728 -0.678060173988342 -0.834390878677368 -0.873674035072327 -0.632603526115417 -0.284330189228058 0.877367079257965 2.99839925765991 4.69484090805054 4.70419549942017 4.23179912567139 3.77201199531555 3.8676381111145 3.62693858146667 3.36123991012573 2.77318096160889 2.27451944351196 1.78246009349823 1.29394841194153 1.19135069847107 1.38812410831451 1.86181128025055 2.2905535697937 2.64484429359436 3.00807213783264 3.63260746002197 4.25406694412231 4.66935873031616 4.85382175445557 5.12789535522461 5.53859329223633 5.73970603942871 5.8553786277771 5.99531888961792 5.95713806152344 5.75719547271729 5.58578968048096 6.34077119827271 7.8453369140625 9.02258777618408 9.06233406066895 10.0022563934326 10.2738723754883 8.34692573547363 10.1969146728516 13.2852830886841 15.5572652816772 17.0258655548096 19.2674236297607 16.3732738494873 13.1544971466064 11.6519994735718 10.6021738052368 9.70594596862793 9.3059024810791 9.10765266418457 9.06072235107422 9.08571720123291 8.67465972900391 8.01526641845703 7.30188894271851 7.08709764480591 6.85676002502441 6.52247285842896 6.17063760757446 5.49819803237915 4.95179319381714 4.5186448097229 3.4130847454071 2.71950888633728 2.5216236114502 4.89329671859741 8.79403209686279 22.3742656707764 23.0611400604248 16.8096389770508 12.040189743042 9.6946496963501 8.03768348693848 8.28880023956299 6.95870923995972 5.94933223724365 4.10147857666016 3.33890342712402 2.90907621383667 2.61657500267029 2.44948887825012 2.38480496406555 2.36223816871643 2.19375991821289 2.0085117816925 1.86613941192627 1.63522303104401 1.33885657787323 0.875989317893982 0.540496706962585 0.132819071412086 -0.36248716711998 -0.770041108131409 -1.22155284881592 -1.54554712772369 -1.90523493289948 -2.13996887207031 -2.28939247131348 -2.37454462051392 -2.00224328041077 7.09949588775635 15.9137172698975 16.0856761932373 10.3159799575806 7.9430775642395 6.02730178833008 4.70664691925049 4.17886877059937 3.2125449180603 2.90111708641052 3.07270383834839 2.45141434669495 1.49170732498169 0.547392547130585 -0.22479435801506 0.100183546543121 0.606085002422333 0.800283789634705 0.832860171794891 0.880151689052582 0.749376177787781 0.691594481468201 0.955090880393982 1.43704497814178 2.70889449119568 1.70476114749908 1.72912979125977 1.73344099521637 1.65897107124329 1.56273305416107 1.51025593280792 1.54622101783752 1.7417106628418 1.82086205482483 2.05443716049194 2.21479916572571
-0.0240488927811384 0.00979940686374903 0.00680339941754937 0.00717205135151744 0.0111662037670612 0.0132944798097014 0.0318211019039154 0.0602260008454323 0.136735036969185 0.132823020219803 0.120894268155098 0.143255919218063 0.306414127349854 0.650372266769409 1.19939982891083 1.37134122848511 1.40743684768677 1.09204471111298 1.29604434967041 1.14212334156036 1.10056114196777 1.15697228908539 1.19041347503662 0.962985396385193 0.706175565719604 0.456872910261154 0.238736003637314 0.0861904546618462 -0.139205917716026 -0.33530792593956 -0.263299316167831 -0.611062228679657 -0.804079949855804 -0.923118889331818 -0.626934170722961 -0.00729280617088079 -0.0875136107206345 2.02079510688782 3.76780915260315 5.1763014793396 5.09354162216187 4.40020227432251 4.17630195617676 3.64670944213867 3.28277349472046 2.9888699054718 2.4158148765564 1.81447315216064 1.3717976808548 1.68678772449493 2.28198957443237 2.74184918403625 3.14219188690186 3.43717908859253 3.82109117507935 4.51076984405518 4.99931955337524 5.14778566360474 5.39732551574707 5.8278956413269 6.06598901748657 6.25148057937622 6.32403230667114 6.61414527893066 6.5570011138916 6.46454429626465 6.7184476852417 7.54538583755493 10.0222902297974 11.0723743438721 10.735330581665 9.1329870223999 8.85988521575928 10.7710943222046 14.4586629867554 17.701961517334 17.0689220428467 17.3347072601318 17.9851131439209 19.043478012085 15.149808883667 14.017237663269 11.7172088623047 10.8690996170044 10.8305788040161 10.2374839782715 10.406231880188 9.95632553100586 9.31357955932617 8.29633235931396 7.59424877166748 7.30809783935547 7.52452898025513 9.19662761688232 8.19187450408936 5.26099443435669 4.68716669082642 3.88327980041504 2.8885486125946 2.46194052696228 2.24307942390442 3.88343596458435 4.31726598739624 9.25123119354248 18.2708358764648 16.7322540283203 12.4367399215698 9.31747531890869 7.9298882484436 7.14489555358887 6.50158071517944 5.4339747428894 3.96593642234802 3.20342588424683 2.92365193367004 2.65773987770081 2.44582486152649 2.45480465888977 2.37732601165771 2.10192775726318 3.40309500694275 1.82495069503784 1.53609049320221 0.994677782058716 0.64450603723526 0.27554714679718 -0.138804718852043 -0.585111320018768 -0.941774964332581 -1.3372974395752 -1.6317800283432 -1.93076622486115 -2.15046000480652 -2.22412896156311 -2.29536986351013 -2.21675896644592 3.57316303253174 12.652271270752 16.1571884155273 10.9772748947144 8.27913188934326 6.29739618301392 5.04020643234253 4.73692607879639 4.06153964996338 3.51827692985535 2.95892953872681 2.10298156738281 0.949939072132111 0.32247269153595 0.293476402759552 0.841699600219727 1.05808436870575 1.13629651069641 0.957324385643005 0.999190926551819 1.14208555221558 1.1732372045517 1.44483840465546 1.59624266624451 1.75645327568054 1.80545568466187 1.77739298343658 1.71693789958954 1.6178777217865 1.56011641025543 1.6954333782196 1.90579199790955 2.00254583358765 2.22430205345154 2.35028386116028 2.35582613945007
0.020023824647069 0.0370967127382755 0.0265487115830183 0.0149043705314398 0.01648367382586 0.0439983122050762 0.075439453125 0.167415305972099 0.18188165128231 0.16646870970726 0.168539643287659 0.318488031625748 0.668955326080322 1.2344229221344 1.41155648231506 1.45368564128876 1.48013973236084 1.53502368927002 1.38077855110168 1.30862748622894 1.38468098640442 1.36270177364349 1.11223959922791 0.906938493251801 0.639645993709564 0.360419452190399 0.207376226782799 0.0420057661831379 -0.0793911516666412 0.0285692121833563 -0.13628938794136 -0.391078263521194 -0.742477178573608 -1.02479887008667 -1.18644952774048 -0.723639726638794 -1.15838408470154 0.767340898513794 2.58850693702698 3.5311906337738 5.07921457290649 5.87716150283813 4.68540906906128 3.37735319137573 3.25599503517151 3.27203845977783 2.49191045761108 2.1034083366394 2.14263367652893 2.5948691368103 3.2653181552887 3.77251839637756 3.81367301940918 4.14839696884155 4.69470834732056 5.16168022155762 5.36035013198853 6.08259868621826 6.48114204406738 6.53094291687012 7.08657836914062 7.39303636550903 7.60010957717896 7.52635192871094 6.99475193023682 6.24427652359009 6.13296937942505 8.13754844665527 8.82825374603271 14.0507669448853 10.2583570480347 7.3919472694397 6.35380458831787 5.83749294281006 8.30604457855225 22.1864681243896 22.7123012542725 19.2335891723633 14.8654022216797 18.0406761169434 18.235221862793 15.8872356414795 13.6493711471558 12.6156482696533 13.0881471633911 12.8052034378052 11.6659107208252 11.5750541687012 9.71977806091309 8.34812164306641 7.62951326370239 8.72130393981934 10.991024017334 11.6333904266357 11.1845264434814 5.12830018997192 4.41995573043823 3.67454481124878 2.77574014663696 2.25461864471436 2.19679760932922 4.11136484146118 4.22783660888672 5.87901592254639 12.9485483169556 13.7932500839233 11.1543111801147 8.97325801849365 7.59478807449341 7.23671674728394 6.25637626647949 5.32812213897705 4.00414037704468 3.2806670665741 2.88754034042358 2.5425660610199 2.46897864341736 3.07578468322754 2.14615607261658 1.90092658996582 2.4018759727478 2.13116264343262 1.46784150600433 0.73115199804306 0.348986983299255 -0.0184254106134176 -0.44529515504837 -0.740054547786713 -1.0747321844101 -1.40464758872986 -1.74572229385376 -1.94827508926392 -2.10460925102234 -2.1600067615509 -2.16691422462463 -2.14513683319092 0.337802737951279 10.0165767669678 14.5118160247803 10.8297548294067 7.91606950759888 6.27504062652588 5.65883779525757 5.71305894851685 5.04623222351074 3.8374969959259 2.94072890281677 1.71140956878662 0.810641586780548 0.480715841054916 1.08247673511505 1.39408314228058 1.60519623756409 1.38931953907013 1.11025249958038 1.31496977806091 1.82109522819519 1.83030521869659 1.81613028049469 1.79563629627228 1.85510957241058 1.86536931991577 1.79033589363098 1.6707798242569 1.60555160045624 1.88607966899872 2.07108163833618 2.172767162323 2.40458917617798 2.50469040870667 2.5455629825592 2.43408036231995
0.0392459183931351 0.0382799841463566 0.0154308052733541 0.0416993908584118 0.08954206854105 0.0821237042546272 0.204492315649986 0.227572992444038 0.300460875034332 0.268479555845261 0.33237424492836 0.691599190235138 1.27432000637054 1.45452082157135 1.49777889251709 1.53695774078369 1.83740067481995 1.69623041152954 1.5636967420578 1.71030676364899 1.6343047618866 1.30144023895264 0.95213657617569 0.742056548595428 1.15178942680359 0.307377070188522 0.159472718834877 0.183566868305206 0.322766333818436 0.143700212240219 0.00872320588678122 -0.340764373540878 -0.786104917526245 -1.1190437078476 -1.28565204143524 -1.11483764648438 -1.3264741897583 0.949272334575653 2.48400473594666 2.40116238594055 3.72895216941833 5.71017074584961 4.81434059143066 3.71086883544922 3.023921251297 2.90162181854248 2.94659113883972 2.73764824867249 3.34266352653503 4.17213201522827 4.54436492919922 4.48929309844971 4.89101839065552 5.32863998413086 5.59857892990112 5.92974042892456 6.70217084884644 7.80439329147339 8.59412574768066 8.44595050811768 9.50088882446289 8.94273281097412 8.69812488555908 8.16106700897217 6.9922981262207 5.82113933563232 5.07240390777588 7.25058841705322 7.21332359313965 11.3548755645752 8.06476211547852 6.97502899169922 7.28197288513184 4.02004337310791 2.41171479225159 8.71024322509766 21.2356567382812 15.1786670684814 14.0850305557251 19.503978729248 20.970142364502 17.4727210998535 15.9588251113892 15.4863538742065 15.3290586471558 14.9786338806152 14.922947883606 11.9454727172852 9.75550174713135 7.86482381820679 6.88088083267212 6.31386232376099 5.86583757400513 5.52600765228271 5.48393869400024 4.70257329940796 4.26479148864746 3.46855068206787 2.61786079406738 2.31003665924072 2.21252822875977 2.62687158584595 3.65182423591614 3.93694996833801 7.31774377822876 10.2082262039185 9.44406127929688 8.10254096984863 7.77929782867432 7.4996485710144 6.61995649337769 5.20767545700073 4.10230493545532 3.29501175880432 2.84317636489868 2.5118625164032 2.33426141738892 2.18345165252686 1.97736275196075 1.7805643081665 1.97787308692932 3.97165417671204 3.36614203453064 1.016153216362 0.068078875541687 -0.336800992488861 -0.642445147037506 0.562735438346863 -0.254889130592346 -1.40116834640503 -1.73366129398346 -1.87869298458099 -2.04310059547424 -2.05146360397339 -1.9963161945343 -1.97581839561462 -1.79781818389893 5.67725038528442 12.1965646743774 10.6242389678955 8.06260299682617 6.26400756835938 5.79868841171265 5.51999282836914 5.27833700180054 4.17195177078247 2.72764158248901 1.60932993888855 1.01237726211548 1.28371691703796 1.67384731769562 2.0336172580719 2.01183104515076 1.62328994274139 1.5721822977066 1.92169618606567 2.03606295585632 2.10579657554626 2.07851386070251 1.97341871261597 1.93275392055511 1.87465512752533 1.74605321884155 1.74121904373169 2.10608196258545 2.30745601654053 2.40684080123901 2.6059730052948 2.7623028755188 2.84152579307556 2.70268607139587 2.54623126983643
0.00749491387978196 0.0413226746022701 0.00945649947971106 0.0163233522325754 0.081804946064949 0.293651223182678 0.243211209774017 0.174007758498192 0.218850746750832 0.340489476919174 0.714368641376495 1.31569874286652 1.50093829631805 1.54752111434937 1.91360640525818 2.53136849403381 2.15583872795105 1.91164219379425 2.05351901054382 2.05362820625305 1.61095416545868 1.21208417415619 0.834908425807953 0.492746084928513 0.569235503673553 1.13979732990265 0.380616039037704 0.650857269763947 0.442202568054199 0.384304910898209 0.0607482232153416 -0.366594165563583 -0.800414502620697 -1.1671416759491 -1.3930401802063 -1.45205545425415 -1.51800358295441 0.0958013087511063 1.18499410152435 1.02953684329987 2.38409519195557 3.58799004554749 4.57300615310669 4.30152368545532 3.1537606716156 2.38534879684448 3.1216094493866 3.22930812835693 3.77146363258362 4.92066287994385 4.85171604156494 5.33746480941772 5.8873119354248 6.08128070831299 6.06261491775513 7.36915349960327 8.68234252929688 9.22909832000732 8.69517993927002 11.2224674224854 9.8295202255249 10.7429761886597 9.34725856781006 7.77201080322266 6.6799168586731 5.07868766784668 4.37383937835693 3.12793493270874 5.00734853744507 7.48502206802368 6.62838077545166 3.81245183944702 5.30371809005737 4.35679626464844 2.39778280258179 2.91687488555908 11.832200050354 11.8941459655762 9.3646936416626 13.2998476028442 20.0871829986572 18.5587501525879 19.6673450469971 20.183126449585 19.6272258758545 21.146411895752 16.3218574523926 10.7784576416016 9.06680583953857 7.73207521438599 6.22181034088135 5.94147348403931 5.712890625 5.36951398849487 5.15926074981689 4.65356588363647 4.00656461715698 3.25843119621277 2.49681186676025 2.39904761314392 2.37220025062561 2.56374430656433 2.79027724266052 3.27729320526123 4.74791431427002 5.9980640411377 7.75095176696777 8.44491672515869 8.64661693572998 7.39790487289429 6.55346298217773 4.68668365478516 4.22402286529541 3.36582255363464 2.86984753608704 2.43221712112427 2.18831491470337 2.0435209274292 1.85914659500122 1.61202478408813 1.95853853225708 6.78682374954224 4.03097200393677 1.65461730957031 -0.0402263402938843 -0.439408332109451 -0.739809155464172 1.45123815536499 0.518905222415924 -1.3786278963089 -1.69530713558197 -1.85743963718414 -1.95151138305664 -1.8652024269104 -1.78373038768768 -1.75024700164795 -1.62521660327911 0.636930346488953 6.84822988510132 9.76579475402832 8.37764549255371 7.3650050163269 6.38911008834839 5.27045154571533 4.16306829452515 3.52497410774231 2.41088342666626 1.66048943996429 1.48614203929901 1.89935529232025 2.3094654083252 2.45219945907593 2.23431301116943 2.10803055763245 2.25869107246399 2.26825451850891 2.26124334335327 2.21429920196533 2.14108729362488 2.04039287567139 2.17402839660645 2.40394330024719 2.03090333938599 2.42416000366211 2.54789423942566 2.63132691383362 2.86841702461243 2.99688625335693 3.07823991775513 2.91518592834473 2.84293937683105 2.73387908935547
0.00841521751135588 0.0293644089251757 0.0574827492237091 0.0060063716955483 0.042023915797472 0.128855466842651 0.286049515008926 0.317876160144806 0.364065527915955 0.729443907737732 1.35438787937164 1.54922020435333 1.88564240932465 3.03346014022827 3.30028200149536 3.43766975402832 3.47093725204468 2.57696056365967 2.47297048568726 2.0443286895752 1.70273423194885 1.17581617832184 0.7086541056633 0.475409984588623 0.453861236572266 0.936959981918335 0.975988566875458 0.719656109809875 0.803168833255768 0.463574379682541 0.000333040690748021 -0.352581650018692 -0.767100036144257 -1.16785764694214 -1.39301419258118 -1.35692346096039 -1.49091994762421 -1.26401007175446 -0.628122091293335 0.399117738008499 2.14350938796997 2.47033333778381 2.70035552978516 3.59669733047485 2.93395137786865 2.34827184677124 2.59409809112549 2.86230802536011 3.15876340866089 4.48762226104736 5.63721895217896 6.2540717124939 6.58523368835449 6.74300003051758 8.22198486328125 9.38964939117432 10.0212411880493 8.47611999511719 7.51222276687622 9.10968971252441 8.54961776733398 8.54765319824219 7.60658645629883 7.38520240783691 6.6069164276123 5.00704193115234 3.46234488487244 2.48992443084717 3.22245240211487 3.63412284851074 3.65961647033691 2.89732503890991 2.53078031539917 3.32332682609558 3.84154438972473 5.18498754501343 7.92610454559326 9.37614727020264 10.4828643798828 11.9768629074097 19.6735992431641 22.0398235321045 17.5364761352539 21.384349822998 29.9640331268311 26.8502006530762 17.0783500671387 9.30525779724121 8.47889518737793 8.13980865478516 6.39334392547607 5.92771911621094 5.75653171539307 5.61433029174805 5.43615484237671 4.74588584899902 3.80449318885803 3.22901487350464 2.88359260559082 2.63510179519653 2.72343325614929 2.88563108444214 3.29790639877319 3.78996968269348 5.48943281173706 8.02906036376953 9.35623073577881 10.2251596450806 9.25301837921143 7.30855941772461 5.90311861038208 4.83659648895264 4.27677249908447 3.54052066802979 2.91127729415894 2.39611458778381 2.08715748786926 1.90714406967163 1.67249047756195 1.15315020084381 0.783327162265778 4.18049097061157 5.01670408248901 1.68594491481781 -0.079997219145298 -0.497419446706772 -0.83017885684967 0.110908471047878 -0.588272154331207 -1.44332444667816 -1.70847964286804 -1.78812491893768 -1.80290329456329 -1.71658766269684 -1.60238265991211 -1.54159152507782 -1.43358540534973 -0.602083504199982 4.33626317977905 7.88008546829224 10.3284797668457 8.49990749359131 6.55719566345215 4.68779182434082 3.53373098373413 2.32889866828918 1.38156199455261 1.64195108413696 2.09210062026978 2.51713347434998 2.69758200645447 2.56580281257629 2.57514309883118 2.81691002845764 2.70302629470825 2.61354756355286 2.40152835845947 2.26055717468262 2.26510143280029 2.95886921882629 3.15965437889099 3.3294095993042 3.02993655204773 2.84911131858826 2.72653841972351 2.97268891334534 3.21039295196533 3.29203343391418 3.14897441864014 3.03599309921265 2.99754929542542 2.72578144073486
0.0234376285225153 0.0182902626693249 0.0160608254373074 0.0486575104296207 0.0541600696742535 0.0958231687545776 0.179914385080338 0.503905415534973 0.748517453670502 1.38803482055664 1.5806577205658 2.22977685928345 3.6800537109375 4.15285730361938 4.29344797134399 4.62100219726562 3.89003372192383 2.98583221435547 2.39406704902649 2.16867089271545 1.68445479869843 1.07181286811829 0.702014088630676 0.537887215614319 0.533089280128479 1.0372850894928 0.929807901382446 1.24877154827118 0.887096285820007 0.433849811553955 0.0132363364100456 -0.405370861291885 -0.760307550430298 -1.19482553005219 -1.24552834033966 -1.37987411022186 -1.48137998580933 -0.757886052131653 -1.17715406417847 0.209742099046707 2.07750988006592 1.11284852027893 1.16083014011383 2.04501938819885 2.509765625 2.20655202865601 2.38025736808777 2.78755927085876 4.62730741500854 6.14203405380249 6.92756652832031 7.05966329574585 6.88963937759399 8.89839458465576 10.5316848754883 11.9445343017578 9.49789142608643 7.66783618927002 6.76501655578613 6.48730611801147 6.85628509521484 6.79331922531128 5.16804265975952 4.50230073928833 6.05387210845947 5.14493227005005 3.074946641922 2.98500943183899 3.05275845527649 3.38723993301392 3.31183481216431 3.0840003490448 3.75801825523376 5.36900615692139 7.21120357513428 8.58278942108154 7.88671970367432 9.14799499511719 11.6163196563721 12.0914316177368 16.2444095611572 21.3219947814941 10.6824254989624 7.84807968139648 12.5494565963745 25.6611633300781 16.5238914489746 9.72696304321289 8.76848602294922 8.25671577453613 7.43799638748169 6.62328386306763 6.35663652420044 6.40595769882202 6.02606678009033 4.71535110473633 3.69707250595093 3.3631854057312 3.14316034317017 2.9715781211853 3.00491333007812 3.41148114204407 4.15966987609863 5.30078744888306 10.0342416763306 12.5584754943848 12.6916790008545 11.8347816467285 9.12158679962158 6.33062839508057 5.16531944274902 4.85320520401001 4.39417839050293 3.58928322792053 2.87118220329285 2.3603253364563 2.00724601745605 1.72644734382629 1.24665296077728 0.855704009532928 0.436063677072525 3.12268829345703 4.17561006546021 1.77173185348511 -0.221735805273056 -0.600162088871002 -0.884783804416656 -1.00162327289581 -1.15257370471954 -1.34825754165649 -1.54006373882294 -1.69542407989502 -1.69279825687408 -0.99517959356308 -1.34629333019257 -1.29698157310486 -1.00705695152283 2.51240706443787 4.65302515029907 7.21878051757812 9.22985076904297 9.63087272644043 5.61284351348877 4.50641918182373 3.05749082565308 1.86367034912109 1.98989284038544 2.41523289680481 2.70883440971375 2.91757392883301 2.77693009376526 2.78533220291138 3.08502697944641 2.97860908508301 2.81135940551758 2.56348180770874 4.81339120864868 4.74900817871094 4.12477970123291 4.04402112960815 4.13381719589233 3.88826656341553 3.87835907936096 3.3196325302124 3.23168087005615 3.3050537109375 3.48615694046021 3.19407868385315 3.77379107475281 3.20777177810669 3.03184390068054 2.86336159706116
0.0456635840237141 0.0251912567764521 0.0826048627495766 0.0849552750587463 0.108519360423088 0.180807948112488 0.34134903550148 0.750909268856049 1.41949415206909 1.61565208435059 2.62537431716919 4.44907903671265 5.3032488822937 5.13556146621704 5.96834659576416 5.1711540222168 4.16478633880615 3.48416209220886 2.55767774581909 2.0147967338562 1.42411506175995 1.12108719348907 1.03218984603882 1.71478867530823 1.33477282524109 0.990724503993988 1.46388852596283 1.25701642036438 0.927950859069824 0.46029070019722 -0.103197820484638 -0.398499369621277 -0.826914131641388 -1.05189263820648 -1.23444247245789 -1.39071929454803 -1.5476530790329 -1.56579923629761 -1.67959666252136 -1.62179601192474 0.971289455890656 1.25019431114197 1.33450639247894 1.20067417621613 1.16359806060791 1.84051537513733 2.90369963645935 5.19949531555176 6.35700082778931 7.19145631790161 7.21801996231079 6.9385142326355 7.13440132141113 10.3918514251709 14.5375051498413 11.6456956863403 8.86282730102539 7.28960800170898 6.03848028182983 5.17518997192383 4.78726816177368 5.02632761001587 4.10275459289551 3.12783861160278 3.72443127632141 3.99003386497498 3.51460075378418 3.49791431427002 3.51665544509888 3.42023253440857 3.55734443664551 4.467125415802 5.80638456344604 9.64195156097412 13.2543907165527 9.11035919189453 6.838707447052 5.98946523666382 10.3139314651489 7.62698936462402 8.49554252624512 13.3059034347534 11.7559881210327 8.34480762481689 10.6046800613403 18.2235813140869 20.7386798858643 11.2611789703369 9.74857139587402 9.21310234069824 8.79366779327393 8.09928607940674 7.53705358505249 7.24505186080933 6.78407430648804 4.8496208190918 3.71278357505798 3.49877643585205 3.33732223510742 3.1531183719635 3.42601370811462 6.20226764678955 4.32320165634155 4.41639471054077 7.30248212814331 11.6150226593018 17.242883682251 11.1744766235352 7.49071311950684 5.26201868057251 5.08939838409424 4.91347360610962 4.36181592941284 3.48812747001648 2.72910451889038 2.3145010471344 1.89316892623901 1.29402542114258 0.951014637947083 0.5384281873703 0.123077690601349 2.71662402153015 3.00903391838074 2.52603912353516 -0.348112881183624 -0.657883822917938 -0.808980405330658 -0.89930260181427 -1.02073633670807 -1.20893442630768 -1.42972207069397 -1.60641968250275 -1.51968240737915 -0.562503635883331 -1.19776892662048 -1.21108257770538 -1.16724216938019 -1.00238370895386 -0.428635150194168 4.29659605026245 5.88010549545288 6.79703378677368 5.80669069290161 4.08332300186157 2.63153219223022 2.45539164543152 2.95149254798889 3.24788665771484 3.13461589813232 2.97388768196106 2.988605260849 3.32873106002808 3.16600012779236 3.03657341003418 2.63842916488647 2.30811190605164 3.98828434944153 5.65854120254517 5.21125936508179 5.01124668121338 4.66928005218506 4.6655330657959 4.52750539779663 4.44403314590454 3.79082703590393 3.72106528282166 3.33411407470703 3.17737865447998 3.31911659240723 4.55572938919067 3.80841279029846 3.67384433746338
0.159216523170471 0.170483097434044 0.114903822541237 0.150333255529404 0.385274261236191 0.804139792919159 0.797868669033051 1.45360791683197 1.63973581790924 3.12139296531677 5.68561506271362 8.56681823730469 8.2651252746582 7.48757648468018 6.48438167572021 5.75255393981934 4.61281394958496 3.21640944480896 2.41134071350098 1.6476776599884 1.82830238342285 1.92908895015717 2.65157842636108 2.03474283218384 2.27175331115723 1.69340074062347 1.41070461273193 1.24723637104034 0.913899779319763 0.305134534835815 -0.116702452301979 -0.586814939975739 -0.837735414505005 -1.00495433807373 -1.2839617729187 -1.48752903938293 -1.59404301643372 -1.67492640018463 -1.70434355735779 -0.507469475269318 1.59729993343353 2.06550931930542 1.16437041759491 1.07862830162048 1.42353332042694 3.69784092903137 6.07585954666138 6.3589563369751 7.07845449447632 7.43461465835571 7.28522348403931 7.23576545715332 6.15592432022095 5.9230842590332 10.0760650634766 9.47921085357666 8.02885150909424 6.91347503662109 5.75026845932007 4.86294889450073 4.47625255584717 3.94681358337402 3.34789562225342 3.39620327949524 2.63413953781128 2.48009037971497 4.16790437698364 3.8072202205658 3.54996109008789 2.91579103469849 1.71815299987793 0.822108507156372 0.735055208206177 1.49264943599701 11.1676998138428 9.98245811462402 4.99711084365845 1.91332006454468 3.95081281661987 3.98899579048157 5.81401395797729 8.01744842529297 9.22427940368652 9.00454425811768 10.0817775726318 13.0470237731934 17.7127437591553 13.2625064849854 11.8688163757324 10.8367614746094 10.2682867050171 9.51352024078369 8.80793762207031 7.99009799957275 7.33339023590088 5.61951494216919 3.96427893638611 3.63941144943237 3.33295679092407 3.54416251182556 3.80235743522644 6.70718622207642 4.50565385818481 4.45051336288452 4.40747880935669 7.41364288330078 15.3723945617676 8.71651935577393 5.64232397079468 5.26135873794556 4.97213411331177 4.75770330429077 4.21977996826172 3.37096214294434 2.60284471511841 2.15549349784851 1.51161324977875 1.0413111448288 0.615863978862762 0.200328573584557 0.0392271690070629 -0.0178063753992319 -0.0754264444112778 2.28519344329834 -0.223352894186974 -0.502693235874176 -0.581382632255554 -0.657125174999237 -0.84804505109787 -1.06132245063782 -1.26351058483124 -1.42450177669525 -1.33336794376373 -0.622385144233704 -0.948016703128815 -1.01337575912476 -0.953012347221375 -0.78790682554245 -0.641769051551819 -0.40021026134491 1.8556067943573 1.35367929935455 3.41930389404297 3.12004947662354 2.6084349155426 3.19626498222351 3.49137043952942 3.30042338371277 3.20035171508789 3.16515588760376 3.5381543636322 3.41276884078979 3.31335687637329 2.92988443374634 2.37160205841064 2.05318999290466 4.37306451797485 6.43830490112305 6.31677293777466 6.17224168777466 5.63597869873047 5.23200845718384 5.23460912704468 4.97928810119629 4.33110475540161 3.76047229766846 3.48250079154968 3.25001263618469 2.87218165397644 2.90077066421509 5.10861587524414 4.09716176986694
0.242122143507004 0.282340407371521 0.246462494134903 0.410115152597427 0.85520726442337 1.56386959552765 1.51479697227478 2.1138768196106 4.07523107528687 5.78959608078003 3.74994874000549 5.13076066970825 8.87688732147217 6.85941314697266 6.61152982711792 5.58600378036499 4.03923034667969 2.61857628822327 1.95192003250122 2.67695426940918 3.14411115646362 3.87687849998474 3.06191515922546 3.11889863014221 2.32626390457153 1.67870795726776 1.32621335983276 1.13770508766174 0.656162917613983 0.172985702753067 -0.359544157981873 -0.746420562267303 -0.836169600486755 -1.01858413219452 -1.32111144065857 -1.55144941806793 -1.6511971950531 -1.70007216930389 -1.7402685880661 -0.981892287731171 0.407501637935638 1.40237283706665 1.18180787563324 1.58386445045471 3.92131280899048 4.26902389526367 6.02824306488037 6.76231622695923 7.02100992202759 8.27153968811035 9.11144161224365 7.4955997467041 6.39906311035156 6.00566864013672 8.10896015167236 8.79522037506104 8.08930492401123 7.71539115905762 6.37710237503052 5.30106544494629 4.34991073608398 3.35221934318542 2.46764016151428 2.71363639831543 2.16162419319153 2.93451023101807 4.23978710174561 3.9802577495575 3.19728851318359 1.69203794002533 0.224076375365257 -0.724914848804474 -0.846575677394867 -0.893743813037872 2.93874907493591 5.71699905395508 2.9277663230896 0.774936616420746 1.47807359695435 2.51393032073975 5.07183885574341 7.72377967834473 8.457688331604 9.46073913574219 10.4452819824219 11.6957216262817 13.7496585845947 15.0626239776611 14.0604343414307 13.194938659668 11.7864074707031 10.7569332122803 9.0934944152832 8.28030014038086 7.7700138092041 6.22900819778442 4.24918270111084 3.64603996276855 3.6759078502655 3.91248321533203 4.17665243148804 6.27026844024658 4.63603925704956 4.46297693252563 4.36346578598022 4.71045589447021 12.2421808242798 7.46234607696533 5.57535791397095 5.07323551177979 4.67967844009399 4.47293281555176 3.97505474090576 3.07435250282288 2.20764136314392 1.62316882610321 1.23726177215576 0.809912085533142 0.384299099445343 0.145288944244385 0.0169206373393536 -0.00766846910119057 -0.0297619085758924 -0.0094399768859148 -0.0832613930106163 -0.352737069129944 -0.412569880485535 -0.566798388957977 -0.739424407482147 -0.964123785495758 -1.11194050312042 -1.22586762905121 -1.18705141544342 -0.877421855926514 -0.725121378898621 -0.762965381145477 -0.688521087169647 -0.527708530426025 -0.362229138612747 -0.185235142707825 0.0179691389203072 0.559321343898773 1.76353394985199 2.67486667633057 3.39975428581238 3.78177809715271 3.58083200454712 3.40753197669983 3.34303545951843 3.74834775924683 3.63248348236084 3.55193209648132 3.20691752433777 2.76064229011536 2.2165904045105 1.78798151016235 2.37215757369995 6.86872005462646 7.49394750595093 8.27986335754395 6.68170833587646 6.44592237472534 5.64449405670166 4.83862018585205 4.61119270324707 4.08385705947876 3.79929161071777 3.15791583061218 2.42009663581848 2.09543299674988 3.6165554523468 4.95736455917358
0.388550907373428 0.432763308286667 0.437714695930481 0.903618693351746 1.65070617198944 1.79703795909882 1.76470756530762 1.53544783592224 1.36982727050781 1.48955905437469 1.59355068206787 1.5371812582016 6.91540765762329 7.57620668411255 6.30149030685425 4.5790114402771 3.08851099014282 2.00125908851624 3.11884546279907 5.05738258361816 5.50452089309692 4.5921778678894 4.1621618270874 2.98234820365906 2.4575343132019 1.60561013221741 1.17003083229065 0.757430136203766 0.475134998559952 -0.0953943580389023 -0.64592432975769 -0.754265666007996 -0.929937779903412 -1.11825776100159 -1.35014462471008 -1.57119905948639 -1.67566096782684 -1.73041093349457 -1.71057713031769 -0.967426776885986 -0.345896989107132 0.871727347373962 1.29821932315826 4.43223476409912 4.36301326751709 6.86277866363525 8.18935775756836 6.67541933059692 7.3771653175354 11.6675605773926 10.9089403152466 2.76797127723694 2.04810643196106 3.22965478897095 4.2879900932312 5.21805143356323 5.12521266937256 5.52641248703003 6.69460964202881 5.46743774414062 3.87903213500977 2.82511472702026 2.17061376571655 2.28899312019348 2.1660418510437 4.10404253005981 4.63863086700439 4.03588342666626 3.08201622962952 1.39645516872406 -0.21079495549202 -0.782756745815277 -0.801242887973785 -0.70736026763916 0.472138166427612 2.05482053756714 1.10593509674072 1.76275730133057 3.19375777244568 5.71354198455811 8.40296745300293 9.05831146240234 10.2582664489746 11.2743282318115 12.1912240982056 14.3390989303589 16.6452560424805 16.9267272949219 16.3343334197998 14.4997644424438 13.0557518005371 11.4651556015015 10.3093194961548 8.71359825134277 7.93735837936401 6.768714427948 4.75270938873291 4.09341239929199 4.10409164428711 4.27653169631958 4.53447389602661 4.76372528076172 4.80945491790771 4.59615182876587 4.74785470962524 5.08947706222534 6.76327848434448 7.3930869102478 5.24356269836426 4.82777309417725 4.53396320343018 4.22699308395386 3.6144540309906 2.69208717346191 1.87636280059814 1.27317309379578 0.950116276741028 0.592122495174408 0.49593323469162 0.293056726455688 0.253844201564789 0.125854060053825 0.187510713934898 0.180462196469307 0.0943299755454063 -0.0803204104304314 -0.178532287478447 -0.387345403432846 -0.469104409217834 -0.510073065757751 -0.836531341075897 -0.885826706886292 -0.72247314453125 -0.51662403345108 -0.590011954307556 -0.539013922214508 -0.408136397600174 -0.236762747168541 -0.0311644300818443 0.128933817148209 0.925808608531952 2.12227869033813 2.99877381324768 3.70300340652466 4.12411832809448 3.8490002155304 3.70775198936462 3.58715772628784 4.00694179534912 3.84626483917236 3.70082068443298 3.33220601081848 2.8992383480072 2.63327193260193 2.10283708572388 1.63366568088531 1.36704051494598 4.38526058197021 6.50845623016357 7.74230861663818 8.5994291305542 7.13618946075439 5.72303676605225 5.25844526290894 4.76996660232544 4.30962705612183 3.74129295349121 2.76770234107971 2.26423478126526 2.29391145706177 2.35227370262146 4.46754789352417
0.569839179515839 0.602298438549042 0.957193315029144 1.74782228469849 1.93726623058319 1.88824820518494 1.78505599498749 1.46628534793854 1.50620794296265 1.60834550857544 1.61693489551544 1.40319895744324 2.71992969512939 7.05151319503784 4.93424892425537 3.74701523780823 2.57572150230408 1.23250222206116 1.17540645599365 7.04001092910767 7.68755006790161 5.73339080810547 4.27202558517456 3.36635065078735 2.23151540756226 1.20831513404846 0.861270546913147 0.570687174797058 0.266166210174561 -0.397645175457001 -0.635795533657074 -0.764133274555206 -1.00349056720734 -1.30607199668884 -1.45556449890137 -1.58297252655029 -1.66003930568695 -1.36242580413818 -1.11927926540375 -0.336025476455688 0.168603405356407 1.41743230819702 5.16833972930908 5.62351036071777 2.53904414176941 3.44788908958435 5.32492065429688 6.04613494873047 2.42283821105957 1.25808215141296 2.42461228370667 1.52801668643951 0.264007389545441 0.327506214380264 0.453168421983719 1.00894963741302 1.53622126579285 1.44328391551971 2.60674500465393 3.40873551368713 2.96564650535583 2.38608169555664 1.79485332965851 1.41382193565369 0.620723962783813 2.2073814868927 3.68058776855469 3.10113430023193 2.29514598846436 1.10520124435425 0.263331234455109 -0.604663610458374 -0.541214764118195 -0.460603058338165 0.153896912932396 0.793658256530762 0.946531236171722 2.36099100112915 6.41732740402222 10.086296081543 10.5592994689941 12.3388147354126 13.0006113052368 13.7555274963379 15.8064985275269 21.0821914672852 21.1516036987305 20.1052303314209 17.5982131958008 15.130313873291 14.1679487228394 12.8418779373169 11.4508209228516 9.83663177490234 8.52762508392334 7.43792057037354 5.64609909057617 4.76803779602051 4.62120914459229 4.71764039993286 4.79749870300293 4.90731954574585 4.96636867523193 5.09362506866455 5.28381967544556 5.34710216522217 5.42126989364624 5.26608228683472 4.94097757339478 4.69275331497192 4.43612957000732 3.95967888832092 3.18044185638428 2.40023326873779 1.69984424114227 1.06269252300262 0.757175981998444 0.630661308765411 0.884542286396027 0.714857578277588 0.507545351982117 0.380564451217651 0.489813208580017 0.499855011701584 0.412401080131531 0.302037298679352 0.151412591338158 -0.0164545718580484 -0.0983615145087242 0.0223284885287285 -0.1679907143116 -0.212973460555077 -0.106959201395512 -0.150184169411659 -0.076269194483757 -0.0286057870835066 0.0565967857837677 0.168440595269203 0.35785436630249 1.42288291454315 2.52229642868042 3.47794628143311 4.16167593002319 4.52506971359253 4.1897439956665 3.99760508537292 4.44162464141846 4.28349733352661 4.09900093078613 3.90836596488953 3.428786277771 2.94774723052979 2.5370922088623 2.72103810310364 1.88523519039154 1.42483103275299 1.11884391307831 1.85232603549957 6.50744533538818 8.77150344848633 8.43617725372314 7.45363759994507 6.45748805999756 5.5180721282959 4.88711643218994 3.73615145683289 3.18828654289246 2.76185178756714 2.7044370174408 2.02918648719788 2.09111166000366 3.21777296066284
0.825285732746124 1.00789701938629 1.83964157104492 2.05264377593994 2.06165909767151 2.61329340934753 3.62175798416138 2.46879553794861 1.70148456096649 4.03831481933594 1.54354059696198 1.43726360797882 1.3550341129303 4.98672914505005 4.09344244003296 3.11224842071533 2.89939308166504 1.45531177520752 0.900803446769714 0.96928334236145 7.99916791915894 6.77840423583984 4.66298532485962 3.04604172706604 1.76235198974609 0.952731311321259 0.623010456562042 0.574296534061432 0.252208739519119 -0.54073965549469 -0.688940167427063 -0.859657824039459 -1.04517412185669 -1.30105328559875 -1.51474142074585 -1.62933790683746 -1.86022341251373 -1.06806468963623 -0.134477168321609 0.94724440574646 1.95112884044647 8.60985469818115 9.18344974517822 5.24389553070068 1.51793944835663 1.58718466758728 1.92781853675842 2.20799875259399 0.51737916469574 -1.04529571533203 -1.27036285400391 -1.1561826467514 -1.17342710494995 -1.28051948547363 -1.81018674373627 -2.33416390419006 -1.92453813552856 -1.85637879371643 -1.25281071662903 -0.841326534748077 -0.679966747760773 -0.318600594997406 -0.56524658203125 -1.00058722496033 -0.507991015911102 -0.80949592590332 -0.977624893188477 -0.774627804756165 -0.752486288547516 -0.775142192840576 -0.486562937498093 -0.250673353672028 0.0820721909403801 0.355751246213913 0.970103621482849 1.10274791717529 2.80798196792603 7.95502233505249 12.1345176696777 11.6481227874756 14.8436803817749 15.2501878738403 13.2160396575928 14.5143146514893 13.7643127441406 19.962230682373 22.5515651702881 22.4926586151123 19.2584075927734 17.4736347198486 15.0019483566284 13.6678972244263 12.2316026687622 11.0612287521362 9.53927230834961 8.17991733551025 6.69106817245483 5.76015710830688 5.22579002380371 4.99210739135742 4.97896957397461 5.05273532867432 5.44444274902344 5.51360130310059 5.52510023117065 5.53217554092407 5.36305570602417 5.08696842193604 4.93082761764526 4.66341638565063 4.14779424667358 3.45020532608032 2.82222485542297 2.04964542388916 1.44053685665131 0.79323410987854 1.11400723457336 1.92540645599365 5.8937349319458 2.41687941551208 1.07757389545441 0.686293721199036 0.849862277507782 1.04210901260376 0.98820698261261 0.789793074131012 0.574791014194489 0.404703617095947 0.429243624210358 0.563915431499481 0.545737504959106 0.485712766647339 0.334612816572189 0.307493686676025 0.419512748718262 0.573384344577789 0.7578164935112 1.05264842510223 1.91152691841125 2.92104387283325 3.9426326751709 4.63679313659668 5.01685285568237 4.68267393112183 4.41535425186157 4.7795295715332 4.5632643699646 4.44796895980835 4.22994518280029 3.67604637145996 3.09595966339111 2.57830619812012 2.19730830192566 1.92909622192383 1.56667447090149 1.24280297756195 0.968314409255981 0.682190537452698 3.86907076835632 7.45773077011108 8.10896015167236 6.90848684310913 6.63215446472168 5.96292877197266 4.40261554718018 3.63849067687988 3.52309465408325 3.3648362159729 2.33269333839417 2.30099010467529 2.19222593307495 2.1293203830719
1.09402942657471 1.92163813114166 2.14768362045288 2.31593060493469 4.27020025253296 5.21579551696777 4.90995740890503 2.00212407112122 1.64888739585876 3.05021238327026 1.5529453754425 1.40846312046051 1.26439988613129 2.76004981994629 3.05355453491211 3.38906121253967 5.94437551498413 3.8362090587616 0.975491881370544 0.813883185386658 3.2001805305481 6.16395425796509 4.07071399688721 2.29375243186951 1.36477482318878 0.651315033435822 0.172394588589668 0.281393796205521 0.00343872723169625 -0.609993159770966 -0.800828397274017 -0.99009895324707 -1.16845107078552 -1.33332574367523 -1.55634188652039 -1.82130873203278 -1.91776287555695 -1.77233016490936 -0.8763627409935 1.1803982257843 -2.45379424095154 -0.260530084371567 1.54598939418793 3.00105810165405 1.93491983413696 0.118056364357471 -1.28721964359283 -1.60455799102783 -2.37742257118225 -2.94913554191589 -2.93854713439941 -2.89370775222778 -1.64856910705566 -1.60384380817413 -2.62467002868652 -2.20889759063721 -2.13324952125549 -1.99153625965118 -1.89985525608063 -2.00336575508118 -2.0826268196106 -1.93643546104431 -1.50041019916534 -1.73472857475281 -1.45697855949402 -0.94941246509552 -0.657790541648865 -0.560411214828491 -0.550567448139191 -0.445269882678986 0.122190542519093 0.922397494316101 0.904860615730286 1.15190386772156 1.13097596168518 2.23799419403076 6.90693521499634 12.3121433258057 11.3056011199951 8.11499977111816 9.24528408050537 10.547947883606 9.76980972290039 12.2304458618164 15.1545333862305 22.7605648040771 21.6875343322754 22.8179454803467 21.8131046295166 18.39723777771 15.8385791778564 14.3965625762939 13.11501121521 12.2266969680786 10.8540287017822 9.15680027008057 7.34859991073608 6.51696681976318 5.82406234741211 5.32088279724121 5.29846858978271 5.61234521865845 5.74196815490723 5.75826358795166 5.88396739959717 5.6632924079895 5.41864776611328 5.22615051269531 4.95455408096313 4.37625789642334 3.63446092605591 3.00924181938171 2.39895105361938 1.72487115859985 1.15819442272186 0.69875168800354 0.69728296995163 1.46743607521057 5.77548360824585 2.65726780891418 2.10459327697754 1.74315619468689 1.38864159584045 1.58410668373108 1.46565008163452 1.21549320220947 1.09365785121918 1.04878556728363 1.08020293712616 1.06301987171173 0.920937180519104 0.838061392307281 0.736600637435913 0.757898151874542 0.98688405752182 1.1408576965332 1.41134703159332 2.26687216758728 3.27468204498291 4.40578174591064 5.21036434173584 5.66683101654053 5.27531385421753 4.90780687332153 5.16294193267822 4.90258026123047 4.73237800598145 4.29711532592773 3.9733304977417 3.37174677848816 2.80071783065796 2.32380151748657 2.02738738059998 1.7345529794693 1.34544205665588 1.10452854633331 0.716213524341583 0.341132402420044 0.466454803943634 4.54862689971924 8.24204254150391 7.35107660293579 6.82343292236328 5.4746356010437 4.95107555389404 4.83095216751099 4.78289890289307 2.67464733123779 2.75058627128601 2.94154286384583 2.26430416107178 1.70412075519562
