NCOLS 174
NROWS 32
XLLCORNER 353968
YLLCORNER 6700032
CELLSIZE 16 
NODATA_value -3.4e+38 
5.94913673400879 5.16263437271118 3.89983201026917 1.65153789520264 1.4869943857193 2.86325860023499 5.17136144638062 6.95511627197266 4.97794723510742 5.25429916381836 6.92964458465576 12.5498151779175 7.79319143295288 6.3939003944397 6.56403923034668 3.62420344352722 4.8627758026123 22.4103870391846 18.512866973877 2.31464028358459 2.24835753440857 2.61982655525208 2.6874692440033 3.11291408538818 3.26951098442078 3.90785431861877 3.84424066543579 4.48775959014893 4.50824928283691 4.77705526351929 5.10203170776367 6.04587554931641 5.59765577316284 5.41488313674927 6.09849548339844 5.38982439041138 5.75889587402344 3.84068822860718 4.7240514755249 4.91231632232666 4.6745457649231 5.66226863861084 6.95225238800049 7.3716344833374 7.86602401733398 8.4663143157959 8.65859413146973 9.61914443969727 7.73068809509277 7.68479347229004 8.73645114898682 8.88624000549316 5.59814071655273 10.3834161758423 9.50016498565674 6.09674453735352 3.68496561050415 3.33232069015503 3.28737235069275 5.26855325698853 8.37487697601318 8.74526405334473 9.3476734161377 6.96748781204224 15.0665149688721 14.9619007110596 4.35443544387817 23.001256942749 21.5918941497803 6.95023441314697 7.11473369598389 8.61002826690674 7.48976278305054 12.5145721435547 6.81629943847656 7.67490100860596 9.71440124511719 10.2242946624756 9.88361072540283 7.96993446350098 9.36508369445801 13.3170318603516 12.9288578033447 25.2312545776367 13.3745765686035 8.81070899963379 10.12389087677 14.1868677139282 26.6583957672119 5.65768766403198 19.1159915924072 5.05283260345459 5.33497047424316 13.9111881256104 26.6124706268311 7.81279134750366 6.07480001449585 9.22143745422363 20.8913326263428 12.954701423645 0.690815687179565 -0.588125765323639 1.35917890071869 2.41001152992249 7.04143333435059 17.5622520446777 21.8102436065674 21.0784454345703 24.0529861450195 28.5876502990723 20.2324829101562 25.6589641571045 27.4817981719971 28.2556552886963 11.3053722381592 12.0332345962524 17.3139686584473 12.1569967269897 26.0990085601807 19.474536895752 27.587911605835 34.6366271972656 25.1721992492676 25.1647148132324 20.4875011444092 9.40413093566895 8.57038688659668 9.77283477783203 17.4081382751465 26.8503170013428 25.8441753387451 28.9056129455566 16.458703994751 23.1958427429199 13.1534070968628 13.739857673645 23.7446899414062 23.3329086303711 30.5931129455566 19.325288772583 22.2241363525391 15.9524822235107 26.2082824707031 4.98042488098145 5.09354639053345 7.41379880905151 7.90744924545288 11.0025396347046 10.932900428772 12.9116849899292 12.6730842590332 12.7540016174316 11.9213666915894 11.5856132507324 9.51754474639893 9.43247413635254 8.04096412658691 9.49734401702881 6.45754623413086 5.86389398574829 4.0277943611145 3.04635572433472 4.61864137649536 4.37717294692993 3.94225907325745 2.46464347839355 2.19753479957581 2.1411144733429 2.97623729705811 3.28341341018677 3.72527289390564 3.99020600318909 4.36421585083008 4.59513187408447
5.75149965286255 3.22936701774597 3.76791334152222 1.38192272186279 1.31983017921448 2.77197337150574 4.69084596633911 6.49702501296997 4.63124942779541 6.0877480506897 4.03585195541382 10.574800491333 7.00548887252808 5.85636043548584 3.91991758346558 3.56020259857178 9.29815769195557 16.3166770935059 13.2735252380371 2.12188243865967 2.36177730560303 2.39090442657471 2.42106032371521 2.87332653999329 3.30168318748474 3.5058114528656 3.84044408798218 4.21088314056396 4.18190574645996 4.49537134170532 5.52725791931152 5.11499214172363 4.95633029937744 5.61125421524048 5.0166916847229 5.30912733078003 4.18830823898315 3.65262007713318 4.55525493621826 4.33565855026245 5.21440553665161 5.19835042953491 6.26089191436768 7.15396738052368 6.58528995513916 7.88770580291748 8.34473323822021 6.70517444610596 6.33379697799683 7.09653806686401 7.44833993911743 7.43413114547729 7.88195133209229 7.13960790634155 5.54928827285767 3.81170654296875 3.33096718788147 3.11985445022583 3.77814340591431 6.14038753509521 6.54828596115112 5.52464389801025 7.61080503463745 10.6415758132935 11.1815710067749 19.2464618682861 36.479175567627 29.7377319335938 7.39743804931641 6.19343280792236 4.36298227310181 6.63294172286987 8.20925331115723 8.56219100952148 6.94453477859497 7.30822086334229 7.66709423065186 8.84359455108643 8.53875064849854 6.99061107635498 7.74659872055054 9.35390853881836 17.7774410247803 9.375 14.3409624099731 11.9638690948486 7.18940210342407 7.41948652267456 10.7242746353149 34.9950180053711 6.54312896728516 34.4850578308105 34.3877143859863 16.204496383667 10.3060216903687 12.5083198547363 17.8896255493164 12.6563987731934 9.71239852905273 0.208668291568756 2.12929153442383 0.978287577629089 0.0388307012617588 0.537899851799011 5.77858304977417 8.52828788757324 18.8036327362061 17.7357349395752 19.2488498687744 16.0899925231934 28.6211318969727 18.8967514038086 18.7851829528809 20.2709712982178 23.3460083007812 14.5445594787598 7.62504243850708 2.11707448959351 13.2441625595093 19.9129295349121 14.9177589416504 26.7416591644287 36.3134727478027 14.8851461410522 10.1035928726196 25.7627811431885 14.892840385437 15.4672193527222 17.2332534790039 18.4259185791016 22.1991386413574 18.8784084320068 19.3552589416504 12.7653732299805 16.9920063018799 22.2715721130371 16.6924514770508 38.8826065063477 32.38623046875 15.3341598510742 12.2518997192383 9.21144580841064 21.5814609527588 3.21828627586365 22.1417789459229 7.23117351531982 7.85958814620972 10.2763872146606 10.1013660430908 11.8768501281738 11.2711772918701 10.9500036239624 10.8092451095581 10.8077974319458 8.64926338195801 8.07685947418213 8.69597148895264 5.65554571151733 6.31253957748413 5.28858470916748 5.26916170120239 3.60596990585327 4.44266319274902 3.32048654556274 2.23258280754089 2.2865092754364 2.06813073158264 2.06499791145325 2.7270359992981 3.21958446502686 3.49135684967041 3.90962147712708 4.13070297241211 4.50673723220825
4.73024892807007 3.55299258232117 1.65974843502045 1.20118939876556 2.5199031829834 3.11753726005554 5.69808578491211 4.81666707992554 3.91140580177307 5.57408618927002 8.75281429290771 6.22703218460083 5.03362798690796 5.23305034637451 3.82317423820496 3.78874564170837 12.1105146408081 9.63169288635254 2.10325813293457 2.01372957229614 2.26424264907837 2.25304746627808 2.5331494808197 2.67701816558838 3.04699349403381 3.04625916481018 3.54285550117493 3.75452470779419 4.02646970748901 4.1219687461853 5.13900804519653 4.85358715057373 4.67410802841187 5.29136562347412 4.76658487319946 4.97619295120239 3.95606517791748 4.10538005828857 4.32559108734131 4.14300870895386 4.94318866729736 5.25729131698608 5.78896284103394 6.66509866714478 7.07285833358765 7.25719118118286 7.82277536392212 6.15775346755981 5.52871561050415 6.0614333152771 6.37184858322144 4.78566265106201 4.453049659729 1.62604141235352 4.9784984588623 3.4276168346405 3.25054979324341 3.06373405456543 3.88497114181519 5.49058961868286 5.6414041519165 5.88464021682739 4.36288738250732 8.65107440948486 9.11353302001953 19.3577709197998 18.4126071929932 11.9750928878784 23.5633735656738 14.0547428131104 25.8865795135498 4.45183134078979 7.16471862792969 5.71473407745361 5.62079811096191 6.26654720306396 7.58718395233154 8.26632213592529 8.41526794433594 19.6571445465088 9.98217010498047 22.7187328338623 11.5340204238892 8.12180995941162 9.18271350860596 7.59257125854492 7.70481443405151 26.1793632507324 13.4739198684692 9.45260238647461 22.8573532104492 29.815767288208 27.7908515930176 26.6212844848633 22.0799083709717 12.7735071182251 13.3523082733154 8.06735324859619 31.3019504547119 39.4858283996582 15.8260669708252 28.2861919403076 3.34057068824768 33.1846618652344 12.4567070007324 23.5107383728027 13.9132089614868 21.9814987182617 15.1653957366943 15.0636882781982 16.1019344329834 45.8079605102539 36.3435287475586 51.0372047424316 28.0289821624756 27.0249652862549 6.35512399673462 50.6552734375 13.0425996780396 1.49284875392914 9.64244556427002 21.7947006225586 28.5252323150635 29.7054042816162 9.99104595184326 9.59385299682617 8.59591197967529 10.7818737030029 15.3495121002197 17.0288867950439 17.7374839782715 15.9096441268921 16.1360988616943 14.1153392791748 26.4196949005127 34.2480087280273 37.3501129150391 26.6181259155273 22.2566947937012 15.2463617324829 7.43506526947021 15.7091264724731 4.51736068725586 28.9565563201904 6.57408952713013 6.89756536483765 9.26152420043945 8.85907077789307 9.88448715209961 11.0181446075439 10.6018915176392 10.1624612808228 10.0336141586304 8.28000640869141 8.25647163391113 7.03951072692871 8.25173950195312 5.89702463150024 4.29095077514648 4.10992622375488 3.98941969871521 4.0978045463562 3.68996381759644 3.17724895477295 1.78445088863373 1.555135846138 1.40179097652435 1.4654426574707 2.08901238441467 2.62393665313721 3.41949200630188 3.4745934009552 4.07144498825073 4.26441335678101
2.97222232818604 3.47768235206604 1.28781855106354 1.18979644775391 2.42518091201782 3.72796320915222 5.2893214225769 4.21140766143799 4.23813724517822 5.15919733047485 7.74711847305298 5.64812564849854 4.762366771698 3.77422022819519 3.44795298576355 6.77765846252441 10.2179155349731 8.10446548461914 1.94512319564819 2.13663101196289 2.08471202850342 2.04430413246155 2.38356900215149 2.47453498840332 2.83043766021729 2.9878613948822 3.293949842453 3.39474320411682 3.76987838745117 4.63171768188477 4.33266830444336 4.26985454559326 4.92298412322998 4.59373760223389 4.54682731628418 3.67545413970947 3.24731659889221 3.91965675354004 4.1287202835083 4.58871078491211 4.58019018173218 5.12608194351196 6.06854963302612 5.52338552474976 6.64317989349365 6.84064960479736 7.13426780700684 5.68484878540039 5.14141750335693 5.30025815963745 2.12739849090576 2.18875932693481 11.778600692749 1.33241021633148 1.7084493637085 1.95913600921631 3.1489679813385 3.23841524124146 4.6550726890564 4.44284009933472 4.42042398452759 4.8260760307312 6.70085906982422 7.22810316085815 9.69975090026855 13.643515586853 10.8385038375854 12.2838926315308 7.20172262191772 11.5972032546997 6.37131786346436 3.29221558570862 6.49765777587891 5.99020099639893 5.47088813781738 6.87965106964111 10.2241945266724 12.4361705780029 6.60250091552734 7.46272659301758 11.1509380340576 10.8941049575806 8.67578315734863 7.24844551086426 6.18967819213867 21.0410442352295 3.60693645477295 4.51460075378418 5.89991664886475 5.75359725952148 15.2056751251221 10.2300100326538 14.7134037017822 11.4302568435669 8.88412857055664 10.2308053970337 12.2242784500122 30.7112216949463 30.0602474212646 22.353063583374 41.6514434814453 41.2599792480469 38.718391418457 12.1308126449585 6.65502834320068 7.67579555511475 14.0663576126099 15.3396310806274 36.3956260681152 14.8520774841309 38.7634086608887 30.7118072509766 31.4080085754395 33.2719917297363 34.5942573547363 5.05629587173462 3.2538583278656 9.67779541015625 4.14703130722046 12.9977512359619 4.49073886871338 20.4898834228516 30.9950046539307 38.7710304260254 32.812801361084 8.83135986328125 12.9174556732178 10.666633605957 14.4187145233154 15.4025850296021 13.1182107925415 14.0351419448853 9.79858875274658 16.2251815795898 20.0540637969971 29.213342666626 18.3797206878662 26.7873802185059 19.000171661377 9.69877433776855 24.6086692810059 14.014009475708 14.2278985977173 8.62375450134277 6.49370908737183 7.05184030532837 8.92035007476807 8.88864135742188 10.0550718307495 9.73780250549316 9.10465145111084 8.89266777038574 9.0098180770874 7.60460138320923 7.09697914123535 7.56457614898682 5.00690984725952 5.63907957077026 3.4955530166626 3.29086494445801 2.96733999252319 3.96061539649963 2.85507082939148 1.82088363170624 1.76189148426056 1.15493786334991 1.08097743988037 1.28136503696442 1.99128687381744 2.56371378898621 3.300940990448 3.11011338233948 3.98043012619019 4.20970249176025
3.23366904258728 1.53176331520081 1.14898765087128 1.63106155395508 2.62278842926025 4.75246953964233 3.84196543693542 3.47317147254944 4.93730592727661 6.95114707946777 3.24762725830078 5.19834184646606 4.34874868392944 3.68232083320618 3.40183091163635 8.82616424560547 6.91144323348999 2.14969539642334 1.85511612892151 2.05416774749756 1.99945712089539 2.19582891464233 2.2226083278656 2.45432209968567 2.47707533836365 2.72398161888123 3.0836877822876 3.16891622543335 3.51785778999329 4.35453319549561 4.0608172416687 3.96517586708069 4.54853248596191 4.22658824920654 4.37533044815063 3.53721070289612 3.06651616096497 3.87966156005859 3.72294020652771 4.40813159942627 4.67017507553101 4.92613458633423 5.71620035171509 6.06046915054321 6.22784900665283 6.35460901260376 5.02495956420898 4.3250298500061 4.74853229522705 4.76267766952515 21.9437599182129 10.2953157424927 2.80241370201111 4.18576002120972 14.2755613327026 23.0304393768311 2.5772020816803 1.93061590194702 4.3541054725647 4.01283836364746 3.45249032974243 3.02745532989502 5.4979076385498 6.14465951919556 9.7177619934082 11.1298904418945 7.82707595825195 8.07710075378418 4.96510648727417 8.17265701293945 10.4593849182129 4.00888204574585 6.91978788375854 15.1926136016846 5.26089334487915 7.10529851913452 7.02047967910767 7.70151519775391 6.11597537994385 7.61892175674438 8.83750343322754 10.3654861450195 7.2085657119751 6.73128223419189 7.79762697219849 5.09562635421753 3.5325710773468 3.79018902778625 4.51389265060425 4.84894037246704 5.01020812988281 4.0269718170166 9.11966419219971 4.85145568847656 6.13075017929077 7.86027526855469 11.0496196746826 21.851053237915 23.2480335235596 22.2022266387939 25.3308429718018 39.0689964294434 43.9658203125 42.4052200317383 26.495246887207 43.6597671508789 14.321722984314 15.0910501480103 24.1092281341553 22.0527324676514 21.3437309265137 23.267894744873 23.3305759429932 25.1591339111328 24.8832817077637 24.7644577026367 5.04797554016113 4.97808742523193 6.61750411987305 10.8198556900024 24.9501094818115 9.87116622924805 23.3243846893311 34.7257270812988 39.1427040100098 46.2831726074219 36.4758071899414 17.8341789245605 14.3345766067505 13.975245475769 17.8420734405518 22.6596851348877 26.9751491546631 51.9826698303223 47.9645080566406 34.8451728820801 24.1959857940674 14.848952293396 12.1557712554932 13.2713203430176 7.94493961334229 5.61934614181519 11.7876987457275 6.14690494537354 6.30749845504761 8.16526317596436 8.14303207397461 8.95820426940918 9.82703113555908 9.55023097991943 8.88525390625 8.66904830932617 7.39586448669434 7.39157199859619 6.3251519203186 7.25375080108643 5.24470329284668 3.58326005935669 2.89299011230469 2.71986865997314 3.63568711280823 3.27893018722534 2.73761892318726 1.42873227596283 1.23388051986694 0.961395025253296 1.04952692985535 1.24199330806732 1.76849758625031 2.17716646194458 3.21999883651733 3.30853223800659 3.6896653175354 4.11934185028076
3.14444923400879 1.17618227005005 1.07505893707275 2.2066125869751 3.16958427429199 4.49847459793091 3.46492290496826 3.71656489372253 4.67385673522949 6.42593383789062 4.92613315582275 3.86662316322327 4.03792333602905 3.29901146888733 5.65801239013672 7.93946599960327 6.21006345748901 1.93147814273834 1.97585272789001 1.90068650245667 1.82116198539734 2.09799575805664 2.10393500328064 2.30014085769653 2.2400803565979 2.71104073524475 2.77953052520752 3.067715883255 3.12774443626404 4.01028490066528 3.79515624046326 3.70929217338562 4.2478985786438 3.89811182022095 4.01753568649292 2.83161211013794 3.3948860168457 3.64520406723022 3.51719999313354 4.17809438705444 4.44579935073853 5.29067754745483 4.86877202987671 5.67497301101685 5.74839973449707 5.70523881912231 4.56249618530273 3.8890917301178 4.26233673095703 9.92924213409424 9.15264320373535 2.52120041847229 14.323769569397 19.0840244293213 16.0560855865479 2.25583004951477 1.99001741409302 12.8449048995972 2.04294514656067 3.72965979576111 2.99200487136841 3.88678932189941 4.6018214225769 5.92949962615967 9.01284122467041 6.81937837600708 6.52785158157349 4.39127206802368 5.2846155166626 4.65328407287598 2.73440766334534 21.5772228240967 8.43721675872803 17.0214328765869 10.4786262512207 6.53748464584351 6.28763437271118 5.5573992729187 6.40303134918213 7.18273782730103 8.1054801940918 6.81657981872559 6.2577748298645 9.7322826385498 5.82927513122559 3.49446654319763 2.66470718383789 2.77971386909485 3.05796241760254 3.36170268058777 4.45494747161865 10.8030643463135 3.98882341384888 21.2349376678467 5.84406757354736 4.26048612594604 9.49345397949219 17.7765998840332 12.9660682678223 19.3361167907715 19.7452163696289 28.220365524292 23.4114952087402 22.6766738891602 24.7548980712891 9.39089107513428 13.110071182251 12.8311614990234 18.8773517608643 13.4911346435547 13.3140048980713 17.5817604064941 19.9577350616455 18.7994918823242 29.5503177642822 38.8394393920898 23.2167148590088 30.4540138244629 35.8816566467285 31.3043689727783 6.53973627090454 9.67123222351074 11.9158926010132 19.716215133667 36.2772941589355 35.5827674865723 25.4366149902344 39.4479751586914 31.3917999267578 16.2883949279785 31.9299201965332 27.4415493011475 23.9023208618164 29.610782623291 24.560920715332 23.3170738220215 27.4884948730469 11.2395133972168 8.34953784942627 10.0922966003418 22.2782611846924 8.61176586151123 6.37237930297852 6.12977695465088 6.57519865036011 8.02642250061035 8.10346221923828 9.1540584564209 9.12570095062256 8.56924438476562 8.24896430969238 8.28706836700439 7.03001642227173 6.47209978103638 6.80244731903076 4.49595785140991 5.04592847824097 3.1054515838623 2.77227544784546 2.58539986610413 3.44541549682617 2.46472907066345 1.47387421131134 1.25092220306396 0.648987054824829 0.692394733428955 1.11055195331573 0.267198592424393 1.72487020492554 2.13267636299133 2.66544103622437 3.4650444984436 3.7988588809967 4.06437301635742
1.61201822757721 1.05552637577057 1.44959318637848 2.32107973098755 4.17237520217896 3.24049758911133 2.84059762954712 4.2367730140686 2.97245502471924 5.92582750320435 4.63413763046265 3.87309002876282 3.54597091674805 3.23976492881775 7.10457944869995 5.77097225189209 2.56405210494995 1.80321764945984 1.92735409736633 1.84816563129425 1.9904568195343 1.96588182449341 2.10253715515137 2.02132153511047 2.17809367179871 2.52299332618713 2.55541586875916 2.82500076293945 3.55737471580505 3.36423277854919 3.36838722229004 3.92943120002747 3.61077690124512 3.6643385887146 3.01217770576477 2.6450023651123 3.30424427986145 3.16224718093872 3.73381066322327 3.76766920089722 4.1545205116272 4.874183177948 5.09277439117432 5.19336891174316 5.11974191665649 4.15770196914673 3.45713448524475 3.76395606994629 3.88801169395447 7.63485765457153 7.18465566635132 21.3455619812012 0.717736601829529 15.7338848114014 0.726633787155151 1.68929409980774 16.2558307647705 6.70830726623535 13.5798101425171 2.62343668937683 1.59312093257904 1.4035130739212 3.36998605728149 4.88824796676636 7.17101049423218 5.96025609970093 4.37515830993652 4.47104120254517 4.30108404159546 4.24730205535889 21.9309825897217 6.78659963607788 8.5716495513916 13.475546836853 14.9152460098267 5.98302125930786 5.00597286224365 5.04384279251099 6.31714963912964 7.57799100875854 7.98802089691162 5.75798606872559 5.89968729019165 5.2283182144165 3.90866255760193 2.80087876319885 2.4933934211731 2.59578585624695 1.9801983833313 2.04670333862305 2.63760662078857 2.87240624427795 3.1547863483429 3.85164022445679 3.43340444564819 6.70071029663086 9.49311256408691 14.4786605834961 12.6277170181274 9.91568374633789 16.5439491271973 20.4626502990723 14.4841327667236 15.8433084487915 23.2002239227295 30.0962429046631 12.4770765304565 11.5505867004395 12.7270078659058 14.6082286834717 13.4376201629639 13.4146318435669 16.1610584259033 16.6707916259766 23.2611026763916 29.5460968017578 31.1547260284424 33.4857597351074 37.7269248962402 16.8012180328369 39.0726051330566 20.2792224884033 25.3282890319824 29.755313873291 28.7948627471924 28.5694904327393 35.9522819519043 28.9522953033447 24.4930686950684 37.1106262207031 20.878210067749 31.9921970367432 28.9759273529053 25.0363693237305 22.3402538299561 19.2979698181152 11.9939250946045 10.734884262085 8.31669425964355 0.948029160499573 1.78166973590851 7.69270181655884 5.34760141372681 6.0405912399292 7.44513320922852 7.43479013442993 8.15389347076416 8.86294555664062 8.90747165679932 8.38637733459473 8.1402702331543 7.50048351287842 6.93081665039062 5.85029268264771 6.52115821838379 4.75106000900269 3.22167420387268 2.62374949455261 2.42544388771057 3.17338395118713 2.83287930488586 2.23854184150696 1.23825800418854 0.580203711986542 0.0237441025674343 0.329881697893143 0.95127809047699 0.637086033821106 0.194926530122757 0.101301729679108 1.25919508934021 3.3831090927124 3.70866417884827 3.97117924690247
1.10301434993744 1.36739003658295 3.17087078094482 2.86721181869507 4.02016592025757 3.0775580406189 3.1276957988739 3.97836112976074 5.50564050674438 4.35190582275391 3.47845792770386 3.6462733745575 3.19022536277771 3.2452392578125 6.51823711395264 5.30875444412231 2.34419727325439 1.76302337646484 1.88588356971741 1.80456602573395 1.9344334602356 1.88754296302795 2.00637292861938 1.89519762992859 2.2605414390564 2.26019024848938 2.48322319984436 2.58793711662292 3.30065155029297 3.10222625732422 3.04952096939087 3.68522834777832 3.4259397983551 3.45296335220337 2.46146559715271 2.91385006904602 3.12165641784668 2.97082901000977 3.47918272018433 3.69186472892761 4.31661891937256 4.02538633346558 4.66497659683228 4.78978204727173 4.73157596588135 3.74492835998535 3.02719020843506 3.33341002464294 5.32453012466431 5.61104297637939 9.9481840133667 9.40897560119629 40.2692527770996 5.22683334350586 39.1504287719727 0.964536368846893 1.77794981002808 10.2810878753662 1.0532910823822 1.8414134979248 1.60844695568085 18.7159652709961 2.42781090736389 5.18761539459229 3.25376200675964 2.98798823356628 4.09114122390747 4.28675651550293 4.14328193664551 16.3665428161621 10.2834167480469 5.15484619140625 8.42901420593262 9.79072761535645 6.93807506561279 5.37861919403076 4.94571447372437 19.3561172485352 18.8698806762695 7.04017925262451 6.00517606735229 6.10523176193237 9.58378314971924 5.01415634155273 7.55543327331543 8.1424388885498 1.87269067764282 2.16779804229736 1.39632427692413 1.25147879123688 1.14882791042328 0.879890382289886 2.41291451454163 2.18050169944763 1.67200040817261 9.45162677764893 16.8260059356689 11.76233959198 13.2220144271851 33.5960121154785 11.7248611450195 8.41491413116455 8.51335144042969 17.6662769317627 21.4105701446533 11.9520616531372 9.75675773620605 11.1023216247559 9.23849582672119 12.6228456497192 11.2895193099976 8.37789154052734 13.5367946624756 17.8019180297852 18.0142917633057 23.6883888244629 20.9392795562744 26.9679374694824 24.7298717498779 31.984977722168 8.89731979370117 8.62060546875 21.1218299865723 20.7834205627441 20.6396522521973 21.947359085083 26.7803802490234 28.2311592102051 35.9435424804688 35.9903144836426 38.7498970031738 25.1756496429443 15.075756072998 17.110050201416 17.0621109008789 14.4839601516724 11.5123701095581 10.3450517654419 3.43274998664856 52.6899528503418 19.2736797332764 3.70010638237 5.57104110717773 5.72466039657593 7.24465131759644 7.43246126174927 8.18548583984375 8.23923206329346 7.89147329330444 7.86423349380493 7.66410875320435 6.86552572250366 6.73290252685547 6.19111204147339 5.49640226364136 4.55533170700073 2.92629814147949 2.52015066146851 2.31744241714478 3.00576996803284 2.60347390174866 1.9163304567337 0.522633492946625 0.226129114627838 -1.02547836303711 -0.124434016644955 9.76509475708008 0.568402051925659 4.83196878433228 13.4731903076172 11.7534112930298 2.23923134803772 3.23680448532104 3.66850256919861
2.01085591316223 1.85965526103973 2.16677808761597 3.77362370491028 2.97627925872803 2.8471736907959 3.67089939117432 2.56301665306091 4.9751410484314 4.10187101364136 3.4724760055542 3.4303662776947 3.13870549201965 4.52012586593628 6.00950527191162 4.90902853012085 2.58718800544739 1.94050586223602 1.79296684265137 1.68991672992706 1.88562750816345 1.89762353897095 1.78317964076996 1.85150015354156 2.13907599449158 2.11709713935852 2.3095965385437 2.94846534729004 2.73672819137573 2.67854857444763 3.13642477989197 2.97597575187683 3.1669750213623 2.64208340644836 2.21279668807983 2.85807967185974 2.6988685131073 3.1673481464386 3.17386031150818 3.40591430664062 3.95051860809326 4.12463760375977 4.27140665054321 4.17091226577759 3.29400610923767 2.62135672569275 2.84633135795593 3.02573728561401 3.92150974273682 4.28033590316772 6.64957857131958 20.6734180450439 5.61691331863403 19.9859199523926 9.60150718688965 36.4094200134277 1.92742443084717 1.80798184871674 0.840000033378601 9.84850215911865 13.7768430709839 1.75011420249939 2.01650881767273 4.11740827560425 11.5473251342773 6.60836124420166 4.2215313911438 3.96625280380249 3.83456230163574 11.5219717025757 8.88233947753906 11.0909452438354 7.37944936752319 6.63514137268066 17.4401397705078 4.34039449691772 4.60579299926758 7.01026248931885 7.20805072784424 6.69943475723267 4.81457805633545 9.04941844940186 9.39361572265625 3.84262084960938 21.8244781494141 12.8540706634521 19.1048545837402 1.59660291671753 0.980164527893066 0.717199206352234 1.12088394165039 11.5484838485718 0.76272064447403 -0.638329565525055 1.02245879173279 5.89243745803833 8.52597618103027 12.185338973999 25.3418312072754 14.6094417572021 9.33086395263672 6.53474044799805 12.5885992050171 13.759729385376 14.1200017929077 11.0202083587646 8.88312435150146 7.67412137985229 6.55206155776978 7.69356298446655 7.43575477600098 13.7588148117065 7.58559322357178 15.6639957427979 18.304666519165 18.8496971130371 21.041051864624 19.4661235809326 18.7614803314209 23.9209823608398 43.0404472351074 44.5566940307617 15.7797412872314 18.5721836090088 18.1786651611328 19.1111221313477 20.950382232666 22.0060501098633 26.2959060668945 22.1383495330811 24.4249286651611 25.3445243835449 32.5321769714355 15.4139089584351 15.2953929901123 11.5530309677124 10.158242225647 5.05629634857178 12.8259744644165 24.9472160339355 34.1089057922363 26.5702304840088 5.42609214782715 6.61641597747803 6.79179811477661 7.32919216156006 7.99290037155151 8.04059410095215 7.68471622467041 7.41921710968018 6.92134761810303 6.39883899688721 5.80656003952026 5.92749547958374 3.93670988082886 4.34817790985107 2.64763021469116 2.41350293159485 2.21881008148193 2.8704571723938 -0.688267648220062 -2.88417768478394 -2.86133313179016 -2.91672587394714 -0.607844948768616 -1.11053323745728 5.43834400177002 16.1694145202637 11.4108867645264 0.789872348308563 1.5123575925827 1.2089946269989 3.08935689926147 3.42850422859192
1.04188513755798 1.94056832790375 2.607257604599 3.6552255153656 2.81762933731079 2.91346645355225 3.61216402053833 4.7142448425293 3.835604429245 3.00930666923523 3.35324025154114 3.07996678352356 3.13673424720764 5.5693883895874 4.56143188476562 2.01073503494263 2.42865538597107 2.42941164970398 1.79518210887909 1.87611424922943 1.78357982635498 1.83365869522095 1.70154905319214 1.97811055183411 1.93561398983002 2.08513331413269 2.14740347862244 2.7616879940033 2.54968976974487 2.55689001083374 2.99210906028748 2.82631897926331 2.96695709228516 2.09489965438843 2.43994331359863 2.68008828163147 2.56409430503845 2.98407936096191 3.12333822250366 3.11285805702209 3.61488342285156 3.73256683349609 3.85933613777161 3.70261168479919 2.8727343082428 2.2026059627533 2.42605352401733 2.78488850593567 3.23407363891602 4.46509122848511 5.53680181503296 14.5741167068481 3.42678213119507 14.3415851593018 18.2085590362549 6.45322370529175 1.64566648006439 7.17276191711426 32.2783279418945 1.19248557090759 7.63377904891968 1.82020652294159 2.28969287872314 3.44711565971375 4.71785974502563 3.20251774787903 4.10268020629883 3.91075158119202 8.16688346862793 6.96711778640747 8.62156295776367 12.8887042999268 4.8623514175415 7.59659862518311 17.3160667419434 26.0470676422119 14.9029111862183 10.5369834899902 7.0249662399292 12.0511350631714 5.18900775909424 4.27114057540894 4.91689014434814 8.75638484954834 19.1189041137695 17.4068412780762 12.9298152923584 3.0117495059967 1.14984726905823 -0.0107713416218758 0.0453836135566235 0.310758471488953 -0.781568944454193 3.77771425247192 2.64786076545715 5.87566471099854 7.68790197372437 12.3756628036499 18.2391090393066 14.6559076309204 30.2587337493896 18.1324901580811 11.359673500061 10.057559967041 11.3423976898193 13.5928468704224 7.45844507217407 6.38350439071655 5.5946741104126 6.3837103843689 40.1349182128906 19.783784866333 33.5815200805664 13.1317110061646 16.2920055389404 15.5626401901245 18.8710498809814 17.6050090789795 18.8292999267578 25.7153854370117 26.9648742675781 14.884220123291 16.2285461425781 15.4842023849487 15.6483917236328 16.7800369262695 18.1798801422119 19.5111198425293 20.116418838501 20.6283664703369 20.4927997589111 27.0449714660645 24.0527954101562 30.4050769805908 14.407075881958 9.45892715454102 9.86365985870361 30.1558132171631 44.6210060119629 13.7111339569092 13.66441822052 4.95116662979126 5.00631189346313 6.3670597076416 6.75458765029907 7.32104444503784 7.78513765335083 7.86643648147583 7.35972690582275 6.93707895278931 6.28379774093628 6.16644191741943 5.20621109008789 5.66829872131348 4.05914115905762 2.70130062103271 2.27167916297913 2.10826873779297 2.76583075523376 2.44554090499878 15.2450342178345 -1.55556213855743 -3.11175990104675 -3.04424333572388 -1.02220690250397 0.31953901052475 2.72330665588379 15.1021814346313 8.50249671936035 0.0988423973321915 0.552458941936493 0.469398498535156 1.08215928077698 3.07933592796326
1.02061069011688 1.90550184249878 2.49518394470215 3.48264646530151 2.67523789405823 3.36240530014038 2.26830410957336 4.34723234176636 3.64135670661926 3.11926913261414 3.27551174163818 2.99121451377869 4.01176738739014 5.18691539764404 4.2529559135437 1.8837513923645 1.91349709033966 2.17259669303894 1.94823110103607 1.85147261619568 1.81798601150513 1.65089237689972 1.67440044879913 1.91152238845825 1.85336363315582 1.98263084888458 2.50613784790039 2.31249475479126 0.866458415985107 2.70440936088562 2.62604856491089 2.66058397293091 2.22480607032776 1.94417810440063 2.41784405708313 2.3044273853302 2.72096514701843 2.72881555557251 2.92780995368958 3.29661965370178 3.01919770240784 3.4106137752533 3.51417231559753 2.49901533126831 2.50265908241272 2.06166982650757 2.20808172225952 2.0959849357605 2.72228670120239 3.90499830245972 9.83130645751953 3.49549841880798 10.1411123275757 4.73729658126831 12.9702281951904 9.53906917572021 1.08333015441895 6.9319224357605 6.33611631393433 28.2006244659424 1.49970412254333 4.65176582336426 5.76872634887695 2.57747507095337 11.0509672164917 8.4598388671875 3.82158780097961 3.73410272598267 7.64095973968506 5.09711647033691 6.98376560211182 11.0336999893188 16.3519458770752 7.44777536392212 15.9857711791992 16.0324401855469 5.48248720169067 6.42763185501099 10.7176237106323 14.1526203155518 4.82610702514648 3.64790821075439 11.8496408462524 10.7109308242798 13.7268552780151 21.6532649993896 13.2047672271729 10.1669807434082 1.20635569095612 0.857430696487427 -0.507651031017303 4.52120447158813 2.14491176605225 -0.534628689289093 10.6115474700928 5.43502950668335 6.74824810028076 11.6424417495728 10.6972875595093 19.9112186431885 9.8138313293457 7.23442506790161 10.6404943466187 12.1664562225342 10.498348236084 8.14282417297363 15.5374460220337 5.3434944152832 4.25195741653442 5.3106427192688 5.70213842391968 22.5416030883789 7.49789476394653 12.8378276824951 12.4812231063843 15.7630519866943 15.0549755096436 14.4611711502075 17.2282276153564 21.1925926208496 22.3338947296143 13.9887228012085 15.5616502761841 14.8917484283447 14.9437227249146 14.7881565093994 15.2879800796509 16.9082355499268 16.3536434173584 18.7101020812988 16.8111553192139 20.5676670074463 17.2936191558838 14.1368961334229 11.7735557556152 22.1072635650635 17.7530384063721 33.2103805541992 14.3709850311279 24.7004833221436 12.9309587478638 5.07468748092651 5.17347192764282 6.07822942733765 6.54536199569702 7.2075662612915 7.36505174636841 7.05442953109741 6.75425243377686 6.60827732086182 5.85673427581787 5.31821727752686 5.48304843902588 3.70495271682739 3.88809275627136 2.28446102142334 2.13525462150574 2.02435541152954 2.66139841079712 25.3260135650635 20.5215816497803 9.3976583480835 2.32438969612122 -3.36622619628906 -3.16048192977905 -0.888764679431915 7.7340350151062 9.53253841400146 12.326868057251 19.5921287536621 -0.106900058686733 12.4516124725342 0.7618368268013 3.45071315765381
2.08668327331543 2.53408145904541 3.40425968170166 2.63564777374268 2.22132968902588 3.16090106964111 3.99522590637207 3.40233492851257 2.75820159912109 2.96372318267822 3.2257022857666 3.0182569026947 4.82379007339478 4.01319265365601 1.88228321075439 1.74423229694366 1.85415244102478 1.76098501682281 1.85727059841156 1.76922929286957 1.78465390205383 1.60606729984283 1.81953036785126 1.76011896133423 1.88249361515045 1.90455257892609 2.39547920227051 2.17859673500061 7.35890245437622 1.0759904384613 2.44107437133789 2.44871401786804 2.06193923950195 2.0536196231842 2.23548197746277 2.10011386871338 2.47809338569641 2.67925071716309 2.65425252914429 3.05900430679321 3.118408203125 3.2038369178772 2.97171020507812 2.24282693862915 1.76183271408081 1.76690065860748 1.89558672904968 1.95669043064117 2.45757794380188 3.87168002128601 8.0048656463623 2.07511615753174 8.02276229858398 9.23372173309326 0.567595779895782 14.2449407577515 10.8865528106689 5.17751884460449 14.6074476242065 7.07703924179077 3.35469913482666 1.72079288959503 4.28598117828369 2.73251461982727 2.66128277778625 3.05725121498108 3.72737336158752 6.16162729263306 5.72043704986572 5.3652982711792 6.62104797363281 3.99245548248291 5.83514213562012 8.56410026550293 18.0906600952148 15.5635194778442 26.9043445587158 27.02197265625 23.2379913330078 10.5191841125488 21.0582370758057 3.52690410614014 5.41652822494507 7.29671716690063 15.6791152954102 17.4124374389648 18.7942676544189 13.4033975601196 4.16537618637085 0.217920571565628 -0.32113441824913 -1.14945149421692 -1.58204650878906 9.31882095336914 9.56061840057373 4.12993240356445 7.61828660964966 8.40900611877441 10.4038257598877 11.0064792633057 8.90404033660889 12.5308675765991 10.8059406280518 10.2490243911743 9.74736404418945 7.12592267990112 5.95819187164307 9.23338890075684 3.69519829750061 4.39738941192627 6.3974666595459 5.57576084136963 29.8483867645264 11.3959693908691 11.5511331558228 13.6372900009155 13.1250953674316 13.8017921447754 15.7929954528809 17.163537979126 13.1566190719604 14.1714382171631 13.6741142272949 13.6720285415649 13.7472639083862 14.1818704605103 14.3276920318604 14.8266563415527 16.2339782714844 15.4673156738281 15.4842224121094 15.6420907974243 14.8464384078979 12.6576404571533 12.0708694458008 9.20419502258301 17.2930488586426 26.2562065124512 26.3519134521484 19.9734477996826 9.0486536026001 8.08625030517578 5.70283555984497 6.0605788230896 6.42990970611572 6.98793506622314 7.15114974975586 6.69088935852051 6.30258512496948 5.75892972946167 5.66982746124268 4.79486656188965 5.30627346038818 3.97568821907043 3.72972989082336 2.03456401824951 1.86535251140594 2.53155541419983 2.30886578559875 19.7131252288818 29.1650390625 43.8124771118164 40.5267639160156 39.7747764587402 38.0751724243164 -2.06607222557068 6.87609004974365 6.22996664047241 14.1742067337036 13.1851224899292 17.1980533599854 0.50734668970108 1.07509863376617 2.34663224220276
1.83763360977173 3.16199135780334 3.2883460521698 2.3942654132843 2.56340956687927 2.98184442520142 3.79530119895935 3.25166201591492 2.7867271900177 3.15219616889954 2.90290021896362 3.61766338348389 4.57701969146729 3.74814558029175 1.74397087097168 1.83149766921997 1.72939205169678 1.62171971797943 1.79517316818237 1.71909427642822 1.74186050891876 1.59910249710083 1.77193188667297 1.69495034217834 1.81731307506561 0.453862309455872 0.81216025352478 -0.123185940086842 0.445869386196136 0.246638253331184 2.27657723426819 1.84496867656708 1.61779177188873 1.88456952571869 2.07201218605042 2.22244882583618 2.22687888145447 2.47620320320129 2.76919102668762 2.57145690917969 2.91182994842529 2.97923827171326 2.73082065582275 2.04657745361328 1.60836052894592 1.75362002849579 1.77442574501038 1.92488086223602 2.37079668045044 6.17216396331787 2.52940726280212 6.24490165710449 2.78906917572021 3.63930678367615 6.00479745864868 14.0810012817383 19.7015247344971 18.6614627838135 10.345046043396 6.49523162841797 19.6339836120605 17.1750659942627 6.60232400894165 20.8734092712402 12.9254913330078 2.835524559021 3.51952052116394 5.6465048789978 4.81802034378052 5.46476602554321 4.24050426483154 21.9499320983887 5.68632698059082 16.6402606964111 6.87568616867065 12.8323926925659 15.4204750061035 13.532751083374 11.5435285568237 19.3915786743164 12.6307201385498 3.49871253967285 5.69107055664062 20.1326808929443 14.1612110137939 22.0681304931641 24.5770359039307 11.3596038818359 11.830638885498 11.3061237335205 11.0457143783569 -1.50387907028198 14.2872457504272 -0.95868331193924 1.62368094921112 1.63899087905884 8.0344352722168 11.2416667938232 9.93935012817383 7.89014339447021 14.4832258224487 11.5102996826172 9.65534687042236 7.63422203063965 14.4262170791626 6.79782772064209 7.06947088241577 3.82507061958313 18.5747528076172 15.7709112167358 4.63194799423218 4.07773876190186 3.84441542625427 5.36160182952881 10.9980583190918 10.911262512207 10.615797996521 11.8707666397095 13.0256986618042 14.7131423950195 12.4666385650635 13.4613275527954 13.14577293396 13.1630620956421 13.3934192657471 13.8166751861572 13.6573657989502 13.4144563674927 15.0109739303589 13.8065376281738 14.3680486679077 14.0304889678955 12.6914520263672 10.5720777511597 9.95906352996826 13.3139982223511 20.3612155914307 15.4214725494385 16.9848232269287 11.0732707977295 8.92593193054199 8.36406230926514 6.90934944152832 6.00529813766479 6.37922096252441 6.52568197250366 6.40490579605103 6.1815013885498 6.007568359375 5.41612100601196 4.90511322021484 5.04866886138916 3.54789519309998 3.9907591342926 4.2739462852478 5.31162261962891 4.46092700958252 3.09426045417786 14.1682529449463 21.0447406768799 21.9766693115234 38.6015205383301 35.9102630615234 35.7376403808594 26.0083560943604 42.8836708068848 6.70062160491943 7.8929386138916 12.2825841903687 15.9066915512085 19.2170810699463 14.1864995956421 14.9101362228394 2.42643332481384
1.83631801605225 3.20909667015076 2.44647765159607 2.18233704566956 2.87660264968872 3.61300253868103 2.02626395225525 3.11689949035645 2.65408396720886 3.08190584182739 2.82866144180298 4.36629056930542 3.60133004188538 1.95687854290009 1.69450449943542 1.771723985672 1.67343497276306 1.75107789039612 1.67449843883514 1.70968413352966 1.56505763530731 1.56229150295258 1.72970628738403 1.65290129184723 1.74237108230591 5.55632209777832 -0.554205656051636 -0.246555417776108 -0.273475974798203 -0.603858709335327 -0.169498339295387 1.69547426700592 1.55675137042999 1.91799461841583 1.78557372093201 2.06996917724609 2.15859746932983 2.28632426261902 2.53526997566223 2.62157297134399 2.72350645065308 2.47710609436035 1.87670028209686 1.52072989940643 1.49829471111298 1.70632231235504 1.72096538543701 2.04160141944885 2.24692940711975 5.41978359222412 2.37534379959106 5.656165599823 5.95765113830566 20.8552093505859 22.6574249267578 10.0557765960693 8.8105297088623 7.67678928375244 2.23598074913025 1.27494096755981 9.27071952819824 3.41349720954895 9.79481410980225 16.5254592895508 22.8093414306641 31.1052875518799 4.92751979827881 4.59204053878784 4.7504448890686 4.03148698806763 17.9187030792236 5.15172100067139 14.5629138946533 10.0451965332031 17.2492771148682 10.2353963851929 10.9749736785889 10.1486148834229 13.1597356796265 15.4628715515137 16.3613662719727 15.9516630172729 11.3973903656006 11.4628572463989 14.2342567443848 19.3505992889404 23.3428134918213 23.842191696167 13.9253807067871 14.2766351699829 -1.29137361049652 3.21497392654419 -0.737987756729126 16.0274505615234 -0.42869970202446 3.22000551223755 5.9893479347229 8.07299900054932 7.83089208602905 6.35397863388062 6.41146564483643 6.49533414840698 8.29675197601318 26.397123336792 7.04307842254639 6.36294984817505 4.97209310531616 3.3669056892395 14.0376625061035 3.92947149276733 4.24413776397705 3.30444693565369 9.28443336486816 23.8664569854736 9.98778533935547 9.71401405334473 9.77858638763428 9.62149238586426 10.8832483291626 10.7544651031494 11.4560260772705 12.5573625564575 12.3074464797974 12.5562915802002 12.9889640808105 12.9129543304443 12.9934568405151 12.8153429031372 13.9572019577026 13.1138439178467 13.660327911377 12.9048452377319 11.5770454406738 9.23862171173096 8.58236122131348 12.9808034896851 17.7839584350586 13.5193128585815 10.3698091506958 7.36931848526001 7.89676141738892 7.50078248977661 6.68290758132935 6.06215953826904 6.28565692901611 6.337477684021 6.02532148361206 5.74903154373169 5.3359432220459 5.25945520401001 4.44733953475952 4.89099550247192 3.74111390113831 3.25001645088196 4.81716394424438 4.81880187988281 4.97897243499756 3.5563178062439 12.4088897705078 21.8086910247803 14.5686454772949 30.777307510376 33.0253982543945 30.8690795898438 26.3284664154053 21.8529987335205 10.1821908950806 10.0236129760742 8.29024314880371 13.2772388458252 21.0734577178955 2.67579913139343 1.85867691040039 18.5179901123047
2.2122631072998 3.11449313163757 2.37570238113403 2.34830522537231 2.77647709846497 3.47531032562256 2.9888608455658 2.37249183654785 3.00526070594788 2.7560510635376 3.27759528160095 4.13217830657959 3.41973733901978 1.79094743728638 1.78815734386444 1.67675352096558 1.55205726623535 1.69023585319519 1.60368776321411 1.63454008102417 1.50914978981018 1.70694279670715 1.61088895797729 1.66656851768494 21.5931987762451 21.7369499206543 7.93195962905884 17.2539463043213 0.203533321619034 11.1503458023071 -0.0448716022074223 -0.237886279821396 1.54105186462402 1.77993786334991 1.66731774806976 1.95359015464783 2.11335849761963 2.25600957870483 2.09817790985107 2.4295814037323 2.47962880134583 2.24749326705933 1.71745216846466 1.42310857772827 1.57532298564911 1.63480794429779 1.80548882484436 1.99369788169861 4.49309253692627 2.75934553146362 4.74305391311646 2.15387368202209 9.31490325927734 17.3841762542725 16.0609817504883 2.28387784957886 0.964324653148651 6.10170316696167 0.996115922927856 21.4974727630615 0.370736092329025 3.15356373786926 6.58410167694092 11.8736686706543 15.5497531890869 3.64473795890808 4.93269300460815 2.82543396949768 3.27166318893433 8.39640712738037 9.33870029449463 9.10036945343018 5.39218425750732 7.8429741859436 6.62547922134399 7.31209802627563 7.69617080688477 7.71177673339844 12.337456703186 14.467583656311 22.5570812225342 12.9314641952515 8.17117404937744 9.9757661819458 13.9151458740234 14.7445230484009 27.6418781280518 28.8481292724609 32.1708488464355 11.4884653091431 15.453727722168 13.7747011184692 13.9088649749756 -0.643062591552734 13.435474395752 3.00237989425659 6.07297039031982 7.79097747802734 6.72322511672974 4.15490293502808 5.58155870437622 6.26903820037842 7.08193492889404 6.45243740081787 6.02087259292603 5.6539421081543 3.92609858512878 3.29106092453003 1.98309278488159 3.38664364814758 2.3616509437561 3.01593136787415 3.25917029380798 3.86962270736694 9.1417760848999 8.84120655059814 8.89124774932861 8.81454372406006 9.782151222229 10.0403232574463 11.0169172286987 11.1405553817749 11.1019687652588 12.0094585418701 12.4128694534302 12.1762218475342 11.9429874420166 12.6139469146729 12.2007007598877 12.721019744873 12.2048997879028 11.1550188064575 9.50344467163086 8.57630920410156 10.2163848876953 15.006516456604 12.0208644866943 11.7216625213623 9.16479587554932 6.9785852432251 6.63675260543823 6.88640403747559 6.9078950881958 7.16291570663452 6.11457538604736 5.79694271087646 5.55746984481812 5.40400838851929 5.0063796043396 4.55125665664673 4.67252016067505 3.31744241714478 3.65693283081055 3.07690525054932 4.0298752784729 4.24921655654907 3.66534304618835 10.7071475982666 15.234281539917 20.5132827758789 40.117301940918 26.4720458984375 24.7137451171875 21.4235877990723 25.8296718597412 9.44944000244141 7.23757696151733 9.25773620605469 10.5533819198608 10.9229173660278 16.9629592895508 34.8243560791016 32.7965660095215 2.45613479614258
2.80740714073181 2.30242371559143 1.88146936893463 2.65570998191833 1.81203699111938 3.34089064598083 2.87874531745911 2.43118357658386 2.93972063064575 2.69194674491882 3.9315128326416 3.30729246139526 2.22330570220947 1.67814302444458 1.74147462844849 1.62995779514313 1.68449413776398 1.57984471321106 1.5648205280304 1.43281042575836 1.43625843524933 1.59348344802856 1.50581228733063 1.58458638191223 18.947624206543 29.2426719665527 14.9759902954102 13.1349782943726 19.4351367950439 12.3819704055786 6.40581226348877 -0.472672373056412 0.0193433277308941 1.49478697776794 1.78025770187378 1.81227207183838 2.01748418807983 2.11268258094788 2.11696314811707 2.22438073158264 1.98506271839142 1.51755559444427 1.30577003955841 1.29754078388214 1.49064588546753 1.54857134819031 1.84477829933167 1.92267549037933 4.18386077880859 1.93027782440186 4.34507131576538 4.4096360206604 9.99335956573486 12.3613548278809 6.04092216491699 20.0631141662598 31.5060577392578 6.22513818740845 30.9513301849365 0.0541064664721489 -0.692437827587128 2.60067367553711 6.8508186340332 7.47020053863525 11.5198936462402 2.36816358566284 1.32918560504913 2.5857105255127 22.3119583129883 5.10259914398193 4.68339681625366 4.92114973068237 19.533031463623 6.30804681777954 6.4322304725647 6.57448768615723 6.61017656326294 7.04288291931152 10.3413066864014 13.3272466659546 16.2468395233154 8.77230072021484 10.7085237503052 9.42089748382568 12.9073486328125 13.7883615493774 25.6535606384277 33.4983253479004 16.9286918640137 21.7427539825439 33.4541969299316 35.6972045898438 30.7005863189697 18.8762359619141 7.26020479202271 24.6783180236816 4.94154357910156 5.67189979553223 4.91588163375854 18.8568286895752 7.80960607528687 6.9344596862793 7.85016441345215 6.27636194229126 14.2184619903564 11.0392713546753 4.85158634185791 2.68703746795654 11.2345705032349 3.17149496078491 14.479419708252 2.67477941513062 3.19159460067749 13.1786556243896 4.69848871231079 7.93112993240356 8.37550735473633 8.46364402770996 8.95155620574951 9.50103378295898 10.3158979415894 10.308967590332 11.1882410049438 11.5812768936157 11.5742883682251 11.6598405838013 11.4461784362793 11.8031015396118 11.6218614578247 12.1182298660278 11.1848783493042 10.2119569778442 8.61892509460449 8.00303363800049 10.3799600601196 13.477689743042 11.1466302871704 8.20638179779053 6.03550910949707 6.36324405670166 6.00177812576294 5.97876167297363 6.05300903320312 6.19431400299072 6.05980491638184 5.52853775024414 5.20365285873413 5.16091394424438 4.79769420623779 4.13098001480103 4.54505014419556 3.51639986038208 2.59179592132568 3.05009293556213 3.28628921508789 2.3450927734375 1.09350717067719 3.41227459907532 10.537013053894 10.9818534851074 20.3231086730957 22.6668663024902 21.1865692138672 19.9713535308838 11.8512506484985 8.23660850524902 8.60674953460693 7.1209602355957 9.60619258880615 12.641881942749 18.5378608703613 16.0243492126465 9.03438854217529 32.6161155700684
2.70861101150513 2.17269539833069 2.18046855926514 2.57042479515076 3.18567943572998 2.78430366516113 2.21540021896362 2.8822717666626 2.6310658454895 2.70595836639404 3.72488617897034 3.1396279335022 1.74613618850708 1.62117087841034 1.69837236404419 1.59096217155457 1.63607108592987 1.51581454277039 1.49656283855438 1.33970379829407 1.45928251743317 1.37455344200134 1.4920459985733 10.850622177124 13.3080396652222 26.0227355957031 1.22127568721771 2.07406878471375 10.4552307128906 7.11722326278687 -0.718885064125061 -0.699974715709686 -0.198405787348747 1.36786901950836 1.65725862979889 1.86675667762756 1.97844588756561 1.79091036319733 2.02262830734253 2.04327964782715 1.79999732971191 1.37277746200562 1.20163440704346 1.34739315509796 1.40507936477661 1.60761141777039 1.75111079216003 2.20738554000854 3.90931010246277 1.68197286128998 3.97599172592163 4.36735010147095 8.52466773986816 4.77777624130249 9.04993629455566 15.621862411499 0.818936228752136 16.5178050994873 5.00712060928345 -0.328196316957474 1.12420868873596 0.949815034866333 4.47416257858276 6.12685489654541 2.17011117935181 1.54435455799103 39.1053276062012 33.3316459655762 4.65828275680542 4.42874097824097 19.5432720184326 4.26507997512817 5.68646860122681 5.09824752807617 5.78452205657959 6.26973581314087 5.42649602890015 7.29129648208618 8.1742525100708 11.2636566162109 12.6011543273926 6.06443548202515 9.33088684082031 11.7177791595459 10.7062339782715 23.0142669677734 17.5848026275635 31.2172203063965 35.6421813964844 26.2686080932617 31.7110939025879 27.9525413513184 24.186595916748 25.8708057403564 29.0694828033447 7.55699300765991 9.10926628112793 3.63585996627808 4.31455087661743 5.11016845703125 15.869158744812 24.5602855682373 30.1335868835449 39.7154769897461 19.7878856658936 19.9560432434082 8.1533670425415 15.8305625915527 18.1334095001221 16.4427795410156 2.65374827384949 2.54984521865845 3.6745138168335 12.0773954391479 2.92465043067932 4.51794242858887 7.79781341552734 8.04068183898926 8.84042930603027 9.05670547485352 9.3549690246582 9.78914737701416 10.7347993850708 11.0940313339233 11.0974979400635 11.1786546707153 10.9751863479614 10.9002771377563 11.3212871551514 10.7657527923584 9.96733665466309 8.59430980682373 8.0007905960083 7.88012552261353 11.6085567474365 12.2737627029419 10.2899036407471 7.61599636077881 5.57923126220703 5.18745183944702 5.65479135513306 5.86086511611938 6.05438804626465 5.94672918319702 5.60454082489014 5.47586488723755 4.98247957229614 4.66860294342041 4.62043476104736 4.26425457000732 4.04690599441528 3.44394445419312 2.32317781448364 1.94577634334564 1.3191591501236 1.0416065454483 3.03375363349915 4.40734338760376 5.74196195602417 7.237060546875 9.41809844970703 17.4511852264404 13.725564956665 16.9945812225342 7.09334850311279 6.99699735641479 8.299485206604 8.75726413726807 9.01093101501465 11.1925191879272 14.3427686691284 12.7222633361816 14.6129341125488 3.57754898071289
1.98920357227325 2.06788444519043 2.49697542190552 1.68826198577881 3.06710147857666 2.68944787979126 2.27542638778687 2.82435035705566 2.57630348205566 2.8225998878479 3.53021240234375 2.9711058139801 1.63210034370422 1.70920062065125 1.61021959781647 1.48027086257935 1.58879363536835 1.52239227294922 1.33374333381653 1.20991516113281 -0.951637327671051 -0.750216484069824 -0.776147365570068 8.99603271484375 15.1101236343384 19.5289630889893 45.3992156982422 -0.748475313186646 6.28265953063965 -0.0450139418244362 2.16349101066589 -0.947742938995361 -0.795341908931732 0.0968901589512825 1.51557409763336 0.32250651717186 -0.105374954640865 1.80964589118958 1.91388809680939 1.84678149223328 1.20891976356506 1.09090709686279 1.10597205162048 1.29052603244781 1.34881794452667 1.56262183189392 1.57208859920502 3.31534647941589 1.60779762268066 3.43540954589844 1.6104097366333 6.37259531021118 6.95450448989868 4.02278470993042 5.9913969039917 10.7406826019287 28.314868927002 10.941216468811 -0.327816635370255 1.69001805782318 2.17787384986877 13.1547317504883 1.60503017902374 1.4626601934433 1.75154542922974 33.4498443603516 14.297947883606 8.4871826171875 4.09668111801147 13.0386085510254 4.82260274887085 27.4040546417236 5.06557655334473 5.48245525360107 6.01788520812988 5.90186357498169 4.19305324554443 5.23379755020142 8.10666656494141 9.28026485443115 11.8773288726807 23.2082576751709 10.8066673278809 11.974157333374 12.0964288711548 15.0066938400269 18.8344821929932 28.68430519104 25.6910552978516 25.8555908203125 24.8914337158203 23.3817176818848 24.5502128601074 19.4486904144287 14.7667226791382 14.229700088501 4.54814481735229 3.53615570068359 10.2972784042358 34.0506324768066 7.59768390655518 9.87495899200439 15.8300294876099 16.1030406951904 21.955623626709 20.2397193908691 36.5953178405762 23.6858558654785 23.1779727935791 17.0332622528076 23.258129119873 18.3103523254395 7.44515466690063 3.64877104759216 16.8724174499512 4.54257678985596 6.15684413909912 7.91339778900146 8.63627624511719 8.68687152862549 8.84541797637939 9.54823970794678 10.2869386672974 10.6323699951172 10.5351963043213 10.3444805145264 10.191032409668 10.4452991485596 10.8357582092285 10.2269525527954 9.55245018005371 7.81161975860596 7.26375770568848 7.19102668762207 11.0176086425781 9.24520397186279 8.54318618774414 6.98449897766113 4.96423768997192 5.46459007263184 5.52114486694336 5.73984336853027 5.92204475402832 5.83080959320068 5.51732873916626 5.2158374786377 4.94031381607056 4.47004985809326 3.97740125656128 4.10310316085815 2.99743962287903 3.33354234695435 1.3095817565918 1.36356472969055 2.50749254226685 3.34571146965027 7.38926649093628 17.3448600769043 10.1084184646606 27.2910747528076 11.986065864563 10.3754148483276 8.16187858581543 7.70807933807373 6.36117315292358 7.60746097564697 6.5768027305603 8.44123077392578 10.0781860351562 11.2471828460693 9.40234661102295 6.19875478744507 11.3854808807373 3.73836326599121
1.89728248119354 1.99025535583496 2.42715644836426 2.94614911079407 2.59894514083862 2.08093571662903 2.22646546363831 2.53531050682068 2.59041166305542 3.36092829704285 2.83218193054199 1.68207824230194 1.57506763935089 1.66798985004425 1.57824289798737 1.62401580810547 1.51355278491974 1.46114218235016 1.26970934867859 1.35167348384857 14.2644214630127 -1.27101457118988 -0.0990922823548317 6.68692493438721 3.40898275375366 -0.324466437101364 -0.292699009180069 20.394100189209 -0.509790539741516 -0.191729933023453 0.78388512134552 4.67795372009277 -0.807673811912537 -0.0532817766070366 1.61019098758698 40.2340126037598 43.9530830383301 1.71012222766876 1.81343913078308 1.56182253360748 1.15428423881531 1.03861546516418 1.18246185779572 1.23693978786469 1.43328964710236 1.47419679164886 1.64821910858154 2.99271821975708 1.53363859653473 3.16408371925354 3.06975793838501 5.53260183334351 3.28481864929199 4.0495810508728 7.40021705627441 13.25159740448 8.30393123626709 3.34773969650269 9.60507106781006 -1.06529486179352 0.373802185058594 1.34096431732178 16.5540180206299 39.8302841186523 24.4828624725342 12.4678173065186 9.06939601898193 3.5340588092804 4.03281116485596 4.8089714050293 4.19372177124023 5.01412200927734 4.72871208190918 5.39452505111694 5.606858253479 4.13641500473022 4.34939527511597 3.37182641029358 6.02791309356689 8.07512950897217 12.7979068756104 14.3511686325073 11.0320844650269 11.8758964538574 13.082236289978 13.3763217926025 17.0078449249268 19.3649883270264 22.9876384735107 18.6854362487793 14.4948606491089 18.411060333252 19.7526264190674 16.2025184631348 8.74491596221924 11.2171897888184 19.0525379180908 26.8977108001709 21.1877670288086 8.84256649017334 27.0182247161865 30.3337669372559 19.4399375915527 15.5553941726685 17.3214168548584 26.5324554443359 26.9170112609863 44.2563552856445 22.0532665252686 11.9276390075684 16.7383975982666 11.8262996673584 4.03884172439575 11.0681400299072 3.93836951255798 13.771203994751 4.40568923950195 5.47348594665527 8.15834617614746 8.28339862823486 8.87559795379639 9.59223651885986 9.99640560150146 10.0624704360962 10.135591506958 9.95422458648682 9.85615730285645 9.95320987701416 10.383373260498 9.48387145996094 8.7262134552002 7.25552177429199 6.81593179702759 7.81689977645874 10.3055286407471 8.611403465271 6.28983306884766 4.79626893997192 4.64919853210449 5.31320333480835 5.55821704864502 5.63079166412354 5.75907897949219 5.68119716644287 5.27074861526489 4.90268039703369 4.54482412338257 4.43782043457031 3.69932317733765 4.02701902389526 3.11963939666748 2.22339534759521 22.4812088012695 1.71720719337463 11.8167381286621 15.3972139358521 9.84707069396973 6.53922700881958 6.55541515350342 12.926549911499 7.81499481201172 18.2624034881592 12.5966796875 1.01203799247742 0.497317761182785 6.94806861877441 7.41821336746216 7.94438934326172 9.36921119689941 10.1732187271118 8.55397796630859 8.27076435089111 3.4030818939209 3.68006157875061
1.80804824829102 2.21895051002502 1.57442593574524 2.87977147102356 2.51831197738647 2.13777947425842 1.84531092643738 2.48283410072327 2.63183498382568 3.19231152534485 2.69053268432617 1.58371579647064 1.65849041938782 1.58168017864227 1.61407542228699 2.05704784393311 1.51617228984833 1.31983757019043 2.1123046875 35.0971374511719 4.81484174728394 13.0661430358887 -0.768780469894409 2.48952841758728 37.5513496398926 48.1578598022461 20.3987197875977 -0.913681030273438 -0.775713741779327 4.28617286682129 8.30265045166016 8.92448234558105 8.59200191497803 -0.0985461995005608 0.26835560798645 22.837984085083 1.50998115539551 1.72598743438721 1.74633646011353 0.97900801897049 1.03986859321594 1.00132071971893 1.14067721366882 1.18742394447327 1.36395740509033 1.37394309043884 2.42047238349915 1.38105630874634 2.72923398017883 1.45862650871277 4.58759880065918 4.64244556427002 2.80450487136841 3.04959988594055 5.86087465286255 8.80868816375732 6.42122602462769 18.2970848083496 20.8242893218994 40.1938781738281 14.4384241104126 27.3507480621338 31.4848613739014 17.2877197265625 21.3972339630127 29.4161243438721 3.50643825531006 3.59564614295959 4.23440170288086 3.63340520858765 22.7140712738037 4.45870733261108 4.64821434020996 5.27801895141602 4.62963533401489 9.71394443511963 4.17507171630859 3.26180291175842 4.22523593902588 7.40971851348877 8.71013259887695 10.5166416168213 13.7156200408936 15.9212684631348 13.869083404541 20.6896991729736 30.2163887023926 17.277982711792 21.9289073944092 32.6509857177734 39.0027770996094 17.8302879333496 15.3854598999023 9.85367393493652 8.64584827423096 17.7431602478027 19.5124492645264 18.665283203125 20.3412208557129 38.9628791809082 16.3051147460938 18.0589027404785 10.522087097168 13.0308437347412 19.23752784729 25.9764881134033 23.9690265655518 17.4116764068604 14.0858469009399 4.54285764694214 7.7099552154541 3.75237822532654 3.15921115875244 6.87228441238403 15.2958850860596 5.36476898193359 25.8155517578125 17.0257015228271 5.52404689788818 8.144944190979 8.68305778503418 9.25076484680176 9.62355709075928 9.60345268249512 9.424973487854 9.18654441833496 9.4829273223877 9.78931331634521 9.27992153167725 8.6642541885376 7.15321445465088 6.64446306228638 5.93153524398804 9.37975311279297 7.83807563781738 7.11334562301636 5.85262632369995 4.67619752883911 4.7630615234375 5.19796276092529 5.42173719406128 5.57095146179199 5.47392416000366 5.20619869232178 4.93537902832031 4.71698760986328 4.28621959686279 3.81187129020691 3.86388373374939 2.7411208152771 2.9651210308075 10.172191619873 1.99700212478638 0.984735906124115 5.9642219543457 6.20882558822632 3.67545366287231 10.1567916870117 15.9238758087158 11.0419025421143 9.86282348632812 5.9490852355957 1.99354243278503 0.747820377349854 12.9516448974609 3.62050247192383 6.75867128372192 8.22238826751709 8.70598220825195 7.4813551902771 5.12549543380737 7.31717300415039 3.52316689491272 3.62104535102844
1.39660322666168 2.12105131149292 2.66856932640076 2.46672892570496 1.96890687942505 2.0788791179657 1.55201029777527 2.42966818809509 3.1028470993042 2.59681558609009 1.62465643882751 1.55298233032227 1.63806748390198 1.56196415424347 1.61742854118347 1.67646515369415 2.04447317123413 2.14256405830383 1.91156923770905 30.5395812988281 15.113899230957 -1.07693386077881 9.80695152282715 1.18835663795471 25.8944931030273 26.7104663848877 37.0402603149414 43.5598564147949 37.5136528015137 6.35543394088745 -0.913205921649933 -0.989809632301331 5.22541570663452 -0.446303963661194 -0.869086503982544 16.2947368621826 1.53059041500092 1.65341532230377 1.34074592590332 0.972789525985718 0.937493920326233 0.940724074840546 1.06993532180786 1.11208200454712 1.3021684885025 1.3228645324707 2.23672652244568 1.32761287689209 2.45185852050781 2.35328984260559 3.9489119052887 2.13903069496155 2.36427068710327 4.44387531280518 6.03254127502441 5.09545707702637 2.15760898590088 27.8176708221436 33.0487442016602 20.9298229217529 21.943021774292 3.79416608810425 16.4281005859375 12.1400890350342 10.7198190689087 9.34409809112549 3.229008436203 3.52373361587524 7.74836492538452 9.6179723739624 4.27825784683228 4.26473569869995 4.97179794311523 5.36252641677856 11.6709785461426 3.31430077552795 6.95775365829468 23.4147510528564 12.8864612579346 6.03196239471436 8.56573867797852 9.29292011260986 11.7541446685791 14.1022233963013 14.7437648773193 14.8715944290161 16.2945556640625 28.6494674682617 24.1999969482422 25.2062110900879 17.3162631988525 24.4168395996094 13.1673421859741 29.1834049224854 18.7549533843994 13.2234935760498 13.7013874053955 33.8244895935059 33.6171035766602 13.4546146392822 9.11413860321045 9.24921035766602 10.5216093063354 14.8032360076904 17.5163230895996 18.1348419189453 16.6126098632812 9.30355548858643 9.49668121337891 23.3189754486084 29.4454078674316 3.62317538261414 4.07178449630737 3.50839853286743 4.72976875305176 6.74758625030518 9.63544750213623 5.16285085678101 15.9368886947632 5.94367122650146 8.6796760559082 9.07562732696533 9.19445133209229 9.27965927124023 9.10650253295898 8.98244094848633 9.03698348999023 9.41826057434082 8.60332489013672 7.91192770004272 6.64416551589966 6.24191808700562 6.61222982406616 8.81087398529053 7.37373924255371 5.29812335968018 4.49847841262817 4.34438467025757 4.9426097869873 5.22609806060791 5.27735328674316 5.3949933052063 5.31804990768433 4.95553874969482 4.58893489837646 4.27425956726074 4.17598581314087 3.48637890815735 3.76494836807251 2.88322925567627 1.97999882698059 7.24267625808716 0.269916921854019 0.668071091175079 0.733589291572571 4.08861017227173 33.9220390319824 9.51562309265137 6.94962644577026 11.6779909133911 25.6124706268311 5.02256774902344 3.15302968025208 0.423016220331192 22.7480564117432 11.925684928894 3.73234891891479 3.70566964149475 7.64932155609131 6.66456127166748 6.10378837585449 3.28743410110474 3.47466850280762 3.63371658325195
1.64260947704315 2.00563502311707 2.51782250404358 2.33829426765442 2.07236075401306 1.10058522224426 1.52474164962769 2.45554089546204 2.99039340019226 2.51379418373108 1.53917694091797 1.6330908536911 1.58141839504242 1.47119235992432 1.57100486755371 1.5403333902359 2.39037036895752 2.37757563591003 20.3432598114014 29.0339069366455 13.796106338501 12.6000881195068 -0.743484437465668 34.6325759887695 17.7802867889404 19.075231552124 32.4094619750977 11.6374578475952 21.2348785400391 16.7115383148193 10.2354946136475 13.4927291870117 -0.268377751111984 13.3016633987427 21.5280265808105 1.32198798656464 1.4615865945816 1.47682738304138 1.27462780475616 0.966150224208832 0.901278614997864 1.00800168514252 1.02000260353088 1.1840752363205 1.20153248310089 1.86355125904083 1.25305736064911 2.03334212303162 1.28802263736725 2.05147314071655 3.33101320266724 1.85572850704193 1.87107479572296 3.50728440284729 4.35056018829346 3.94065189361572 14.4699687957764 21.377592086792 32.277229309082 28.4639720916748 0.95017272233963 14.1964273452759 7.88610887527466 7.66031837463379 6.22279405593872 10.6970729827881 2.80301403999329 5.32505750656128 8.11597347259521 3.96281242370605 4.16963195800781 4.2997612953186 4.827805519104 13.3099126815796 3.98671698570251 10.3436555862427 8.04448127746582 7.46687412261963 5.53532028198242 6.54224109649658 8.08079528808594 9.3022289276123 10.2422428131104 12.0910997390747 14.937744140625 18.4370288848877 25.0625495910645 20.1771793365479 17.2064208984375 22.0149803161621 21.1055564880371 24.9079685211182 32.1738739013672 13.7497749328613 14.6873025894165 23.2555561065674 38.625415802002 15.0331840515137 11.8939142227173 6.88282155990601 7.60517740249634 14.7743806838989 21.7871112823486 13.4322605133057 15.9499034881592 14.9206056594849 12.7068395614624 11.4967470169067 13.9829902648926 7.88628387451172 10.9415168762207 25.6124420166016 27.7368812561035 29.8443698883057 12.751389503479 15.8783416748047 15.3618993759155 6.79327774047852 4.86980056762695 8.33902931213379 8.38949203491211 8.77388286590576 8.81788444519043 8.66725444793701 8.43998336791992 8.67520236968994 8.92900562286377 8.49428462982178 7.93373012542725 6.60036087036133 6.11549282073975 5.02399206161499 8.11819553375244 6.77498340606689 6.05200862884521 4.96229267120361 4.36984300613403 4.44866847991943 4.86095714569092 5.07178258895874 5.16012191772461 5.08352708816528 4.84882116317749 4.605637550354 4.43645000457764 2.9335994720459 3.56260800361633 3.61291599273682 2.5944230556488 2.80088400840759 5.13581848144531 5.45419979095459 -0.198616579174995 -0.00326721183955669 1.50509750843048 11.1244649887085 6.26823759078979 13.190299987793 11.7622385025024 6.18726062774658 0.896709144115448 0.922719419002533 -1.47791910171509 -1.72931385040283 -1.01037001609802 2.33441591262817 3.21196603775024 4.19604825973511 1.93158841133118 4.03086805343628 5.31548023223877 3.2175304889679 3.39085865020752 3.53856801986694
1.87477445602417 2.29833316802979 1.38501155376434 2.20756101608276 1.97555899620056 1.30261588096619 1.65097260475159 2.93300199508667 2.48061156272888 1.04074168205261 1.1699470281601 1.6087840795517 1.54497408866882 1.56428754329681 1.48131668567657 1.66085433959961 2.11160922050476 2.63317966461182 17.6386795043945 29.0673046112061 45.0507621765137 50.508171081543 49.0726203918457 11.7842273712158 12.9849290847778 13.7147951126099 12.5070686340332 40.7445526123047 23.5832920074463 25.7280025482178 18.7838764190674 5.26944351196289 1.41997146606445 6.83953905105591 -0.446356207132339 1.35461747646332 1.30833339691162 0.804241180419922 0.618747591972351 -0.984387516975403 0.812160491943359 0.938350319862366 0.959726750850677 1.12928342819214 1.1464604139328 1.6905517578125 1.1275862455368 1.79606306552887 1.66691839694977 2.65347695350647 2.4206440448761 1.44873476028442 2.66914439201355 3.05670690536499 2.94176411628723 0.957923054695129 13.7822589874268 24.5736541748047 19.840648651123 21.4619941711426 36.9243812561035 0.686397194862366 7.11428499221802 7.26729583740234 5.65490961074829 11.4252233505249 10.100191116333 3.77879643440247 7.19554424285889 2.94565057754517 4.0130033493042 4.64405298233032 5.04908990859985 9.5139331817627 13.0138683319092 3.6675238609314 3.9708616733551 5.25791788101196 5.29597520828247 7.45759725570679 8.00008869171143 9.32886791229248 10.1523504257202 12.5007562637329 13.5569658279419 15.348521232605 16.6359977722168 16.4248676300049 18.6903190612793 13.5157098770142 14.7564754486084 18.554744720459 17.693826675415 18.0581035614014 17.9861373901367 20.4408569335938 13.705620765686 9.27810001373291 7.77373790740967 6.44048976898193 5.87661123275757 8.67986583709717 9.61198139190674 10.7875890731812 11.0744915008545 9.64425659179688 8.44213199615479 7.8591480255127 9.19357395172119 19.8966407775879 15.1127147674561 17.448751449585 10.5277414321899 4.88556623458862 11.7683334350586 9.3568000793457 8.97861957550049 23.9930381774902 32.6078872680664 5.59972095489502 5.84398221969604 8.42094039916992 8.53623580932617 8.39046859741211 8.26105499267578 8.26962184906006 8.6082239151001 7.86730623245239 7.24107074737549 6.11202383041382 5.72440004348755 5.71270227432251 7.66703271865845 6.41378545761108 4.5466160774231 4.21784639358521 4.05553722381592 4.58900880813599 4.88187646865845 4.89254999160767 4.95922946929932 4.86814165115356 4.55770254135132 4.22328186035156 3.94982957839966 2.32252073287964 1.36105167865753 2.1705367565155 0.956953287124634 0.222634717822075 3.95926094055176 20.6344203948975 38.4345436096191 40.9827461242676 14.6847171783447 8.11314010620117 3.80921602249146 4.50986766815186 4.90693187713623 4.1213960647583 0.579800069332123 -1.49133670330048 -2.66623258590698 -3.35231375694275 -3.08857989311218 0.179624274373055 3.20714020729065 9.29895687103271 0.696197390556335 1.51076126098633 1.83313465118408 3.25541567802429 3.37188577651978 3.86207628250122
1.86162781715393 2.23085951805115 2.04059386253357 1.68289029598236 1.90957129001617 1.23143076896667 2.32703399658203 2.84017467498779 2.42133927345276 1.04436779022217 1.05344223976135 1.50703573226929 1.4185551404953 1.52729380130768 1.43850350379944 1.65225386619568 2.02745223045349 14.6636877059937 16.9822330474854 26.1085033416748 31.3972949981689 30.1748542785645 14.9367437362671 10.4756832122803 10.9109573364258 17.1106872558594 15.9226226806641 13.7109823226929 17.4799175262451 29.6796741485596 22.681568145752 -0.316804051399231 3.3018319606781 30.8120594024658 21.4725074768066 1.38813388347626 1.15832018852234 0.548266172409058 0.301663964986801 -1.2020777463913 -0.439519494771957 0.862812936306 1.02216684818268 1.03385496139526 1.37424170970917 1.038947224617 1.32389605045319 1.02177274227142 1.30375468730927 2.14867496490479 1.04458701610565 1.20092451572418 1.94344282150269 1.751593708992 2.1329882144928 8.80826473236084 14.0037689208984 20.3645401000977 16.2736358642578 22.7367630004883 11.8020114898682 39.8801918029785 5.87123155593872 4.42956113815308 4.86245822906494 19.257007598877 20.9665508270264 4.32729816436768 6.0063624382019 6.68241691589355 3.20731091499329 4.52156782150269 6.94710254669189 7.93741893768311 9.46115493774414 22.4760665893555 13.9523601531982 4.91354084014893 5.77603721618652 7.05107450485229 8.05783462524414 8.86374378204346 10.1135368347168 11.6467504501343 12.6463279724121 13.8108558654785 15.2700510025024 15.2875576019287 15.904746055603 27.3823261260986 11.996524810791 9.67533874511719 12.3919057846069 15.2537651062012 14.9198246002197 15.3798913955688 10.1988248825073 8.32710552215576 9.73805809020996 13.0635633468628 25.7141017913818 11.0368556976318 13.735279083252 10.6737966537476 8.95310592651367 12.7307176589966 7.36457252502441 12.5068769454956 21.0868854522705 10.8189916610718 24.323127746582 25.5247669219971 27.7735614776611 24.5724258422852 11.0665235519409 21.1237850189209 22.424015045166 12.7816390991211 14.1479425430298 20.7729930877686 21.4790458679199 6.92931079864502 7.96350383758545 7.80260276794434 7.99524259567261 8.19447135925293 7.81945562362671 7.29682016372681 6.23053121566772 5.90280866622925 4.86509370803833 7.12587833404541 5.93727445602417 5.22882175445557 4.27367067337036 4.09829187393188 4.1604642868042 4.52910995483398 4.71110153198242 4.74513149261475 4.65102767944336 4.39884185791016 4.14200496673584 4.01412725448608 14.8772068023682 9.40685939788818 1.52567088603973 0.810404241085052 14.6391353607178 7.64810466766357 0.389664441347122 16.3505687713623 11.7208690643311 8.80127143859863 3.61096787452698 2.53011035919189 3.05809640884399 3.86588048934937 2.59590077400208 -1.41392648220062 -0.233374297618866 -2.31324458122253 -3.51480603218079 -3.84156036376953 -3.51381468772888 -0.628118932247162 -0.633510768413544 4.88583898544312 -0.123509921133518 1.56655621528625 12.5258665084839 2.39103412628174 2.1910982131958 3.93845152854919
1.89450919628143 2.20545411109924 1.99885261058807 1.75600790977478 1.24055099487305 1.24005770683289 2.76501703262329 2.38304805755615 1.43273890018463 1.43146288394928 1.01543319225311 0.920260965824127 1.37408697605133 1.45161747932434 1.43389356136322 1.66121959686279 1.91378426551819 13.0087871551514 17.0545406341553 20.8306694030762 23.691535949707 23.1473693847656 9.01291275024414 9.23520088195801 9.92896270751953 17.6309604644775 25.7667484283447 12.5606489181519 18.1844158172607 23.3316745758057 15.3269453048706 48.6904106140137 33.8932876586914 12.0588817596436 20.2193851470947 2.17849564552307 2.29137277603149 0.567816019058228 23.5391139984131 4.45267677307129 39.0981674194336 0.781662344932556 0.960833191871643 0.961248397827148 1.18229818344116 0.854694426059723 0.836783170700073 0.851695775985718 1.59546995162964 1.38903498649597 0.949289083480835 0.155717447400093 1.15478098392487 0.749167025089264 1.51685667037964 8.68710708618164 16.7286834716797 13.3674011230469 13.7933616638184 16.6346607208252 5.61403322219849 0.603384077548981 5.51418828964233 4.28803014755249 5.64672708511353 16.1565189361572 3.62951231002808 3.54741764068604 8.09381294250488 15.2689323425293 14.6093311309814 4.72495889663696 5.75556802749634 6.82320356369019 11.071720123291 7.4840784072876 3.76631188392639 4.71633434295654 6.53662204742432 7.04978561401367 8.07843685150146 8.79448127746582 10.6286554336548 11.4771223068237 12.0899791717529 13.6735973358154 13.9009876251221 14.1854391098022 15.3281831741333 14.2158231735229 17.5408744812012 27.8584995269775 7.79736185073853 9.10371398925781 10.1773519515991 8.32215881347656 7.02964973449707 7.3637433052063 8.76437854766846 19.1616878509521 11.7388153076172 13.2228412628174 10.5661373138428 20.3161525726318 18.7129535675049 21.9168281555176 14.8062810897827 24.6350650787354 23.1644477844238 14.8147840499878 15.866418838501 22.6665706634521 19.163257598877 20.9257049560547 28.6574325561523 19.1993637084961 18.3207702636719 35.7219696044922 21.4947319030762 26.5070896148682 8.43520069122314 6.59980249404907 6.76932525634766 7.57775259017944 7.59357690811157 7.91993570327759 7.24568605422974 6.65049505233765 5.91126585006714 5.47996997833252 5.02286863327026 6.75413417816162 5.58588171005249 3.88726449012756 3.80472183227539 3.95514893531799 4.2225227355957 4.35335206985474 4.53147411346436 4.53331232070923 4.42841577529907 4.12430429458618 3.86914849281311 3.77408003807068 20.5700206756592 34.6271705627441 33.0745582580566 10.9569149017334 7.27912092208862 -0.668476819992065 -0.440267086029053 3.72478818893433 6.69502115249634 1.04994750022888 2.01145887374878 1.8569598197937 1.59621775150299 2.79364323616028 1.65594696998596 -0.877986311912537 -2.41588068008423 -3.37117576599121 -3.70658230781555 -1.47074663639069 -3.68047261238098 -3.14458584785461 -0.291922479867935 0.297458469867706 10.434476852417 18.2887859344482 2.16468954086304 2.40675759315491 18.1402816772461 2.76283669471741
0.861769497394562 2.22350311279297 1.61502110958099 2.24937725067139 0.98898446559906 1.49883508682251 2.6520779132843 2.2867443561554 1.28627014160156 1.02655613422394 0.978475213050842 1.03917646408081 1.36205065250397 1.4273294210434 1.40983426570892 1.71298086643219 11.3599538803101 12.0658578872681 15.1500186920166 18.602611541748 18.5438404083252 10.8888902664185 6.16843271255493 7.07378149032593 12.5320167541504 13.8442630767822 9.33304119110107 10.621787071228 16.2830123901367 17.3404178619385 28.5601387023926 17.7950553894043 11.1371803283691 35.8405990600586 23.7228469848633 4.48023366928101 7.40390014648438 -0.82943195104599 1.9900119304657 47.6394119262695 0.412796795368195 0.743302285671234 0.847473740577698 0.870349764823914 1.02147591114044 0.771043062210083 0.663012087345123 0.763440310955048 1.31691062450409 0.62921005487442 0.803854644298553 22.9612808227539 0.661359906196594 1.20466303825378 5.86486434936523 9.9592227935791 5.30530786514282 4.16207933425903 0.634283304214478 -0.983448624610901 -0.856672346591949 -0.309317350387573 5.21020841598511 4.10131740570068 9.56439208984375 2.87098979949951 3.3392379283905 3.26239085197449 2.84168100357056 14.4036474227905 16.3658618927002 3.85095191001892 3.98680949211121 5.6712498664856 7.66505765914917 5.7291316986084 3.61171174049377 4.13725233078003 6.23448944091797 7.09496021270752 7.81239557266235 8.78264713287354 9.9752082824707 10.8293695449829 11.3826112747192 12.7236127853394 12.4521923065186 12.7877788543701 12.9626321792603 12.7829151153564 14.3965539932251 9.29005432128906 26.1295299530029 29.797290802002 27.9483299255371 25.4000091552734 5.65438985824585 6.47223615646362 10.5361251831055 17.5588703155518 19.601131439209 16.451868057251 11.4384126663208 20.872631072998 27.4489097595215 13.393575668335 13.7932195663452 14.3088130950928 10.3979797363281 12.6667909622192 13.4755907058716 15.9188976287842 14.0288028717041 14.3032712936401 13.139181137085 13.4169607162476 15.8429832458496 9.49323654174805 14.0062780380249 5.79471111297607 5.82224273681641 5.77657556533813 5.66035747528076 5.83483839035034 7.52139377593994 7.23023319244385 6.72926616668701 5.87264490127563 5.48118448257446 5.1066632270813 5.54399585723877 6.37273836135864 5.22642946243286 3.63792037963867 3.74945831298828 3.5668306350708 4.03110790252686 4.33464574813843 4.32916879653931 4.25803136825562 4.00369024276733 3.91725468635559 3.56267642974854 4.84056091308594 13.7755994796753 13.1779413223267 10.8424377441406 0.426994174718857 -0.626815676689148 -0.772308051586151 -0.46689835190773 -0.19414746761322 0.0170167479664087 1.17331838607788 0.772821187973022 0.558107197284698 0.870972752571106 -0.0710089132189751 -3.29751825332642 -2.28876423835754 -3.41172933578491 -3.5114278793335 -4.26356077194214 -4.42731952667236 -4.36423349380493 -3.01514649391174 -1.85276532173157 -0.930448830127716 6.47903776168823 2.49586653709412 2.15877246856689 4.26712894439697 2.92100834846497 21.6504573822021
38.7278289794922 3.68572330474854 3.97277998924255 0.932431399822235 1.14285469055176 2.10521507263184 2.57334399223328 2.2078685760498 0.97935950756073 0.958286046981812 1.62183392047882 1.57396972179413 1.43413710594177 2.50106913881609e-05 -0.0743886902928352 1.68098044395447 10.3759746551514 12.7845993041992 14.9231081008911 15.7673778533936 15.9155330657959 8.18063545227051 21.199089050293 20.3902645111084 11.4452686309814 10.3323917388916 8.66962051391602 12.3956003189087 13.6613187789917 14.5302581787109 20.7152137756348 23.1973419189453 29.8937950134277 14.7823028564453 1.99794602394104 4.32821226119995 8.48245239257812 47.050537109375 19.766544342041 13.0102691650391 3.06384491920471 0.678280591964722 0.77807605266571 0.816135346889496 0.757978677749634 0.725829601287842 0.618776738643646 0.817350506782532 0.609131693840027 7.14080905914307 10.3504705429077 0.6099933385849 0.408985942602158 0.894333720207214 5.74911832809448 4.0356879234314 1.61955487728119 1.48433578014374 -1.17182922363281 -1.3996707201004 -0.732989549636841 -0.0973712280392647 3.16380596160889 3.20780277252197 8.17172718048096 2.32429575920105 3.04674744606018 2.36201024055481 2.4018771648407 2.73930072784424 3.09780693054199 3.89682412147522 2.97371339797974 3.43857550621033 2.94855833053589 2.55868744850159 2.9325430393219 3.79555773735046 5.95283222198486 7.1300311088562 7.76490545272827 9.19692707061768 9.94944667816162 10.8156986236572 11.7967023849487 11.5411939620972 11.3941650390625 11.6040840148926 12.0488309860229 10.9604511260986 11.1381206512451 12.4695272445679 12.9702415466309 11.4300127029419 10.7610530853271 8.11197948455811 29.5012874603271 6.29688787460327 5.84065961837769 6.38556623458862 8.42815208435059 9.9666862487793 10.728175163269 20.1150436401367 16.3630256652832 9.5997257232666 10.7614498138428 10.2174816131592 9.86020660400391 10.8892707824707 12.1195163726807 9.79065322875977 9.3347053527832 10.3556089401245 9.32167434692383 10.0539970397949 12.3172883987427 7.49691915512085 5.4879412651062 5.69472312927246 5.42237424850464 5.2262487411499 5.27383852005005 5.38363552093506 5.7068247795105 6.88319063186646 6.43029975891113 5.46007776260376 5.05049085617065 4.11126232147217 5.95988321304321 4.86627817153931 4.13054704666138 3.49764943122864 3.59197378158569 3.79081749916077 3.95459747314453 4.13286972045898 4.10433149337769 4.0086989402771 3.78076338768005 3.5294713973999 3.37705826759338 2.27483534812927 5.89237451553345 8.47509956359863 0.332196474075317 -0.0921039134263992 1.12596750259399 -1.00786423683167 -1.15134453773499 -1.01565361022949 -1.22316467761993 -0.591838657855988 -0.465180456638336 -0.970916748046875 -0.725605547428131 -1.72238504886627 -3.70870018005371 -3.05177760124207 -4.16514015197754 -4.52304220199585 21.4422836303711 24.9634857177734 32.5295257568359 -3.15872955322266 27.6076507568359 -1.18717074394226 0.236631378531456 1.08814883232117 1.81780219078064 2.51377201080322 4.71318244934082 3.05739665031433
2.1317138671875 2.35940146446228 1.73378002643585 0.852073550224304 1.36687767505646 2.48139452934265 2.13154768943787 0.934520602226257 0.957072198390961 -1.43653774261475 1.08813321590424 1.23729276657104 1.38701558113098 -0.328568130731583 7.97719669342041 1.73354232311249 9.52606582641602 11.6578550338745 13.2310991287231 13.4471998214722 8.91944980621338 12.9878005981445 11.5376415252686 10.1721200942993 9.4104642868042 7.56332206726074 7.90219402313232 11.0509576797485 10.8600883483887 14.8572664260864 15.3990755081177 14.6803798675537 13.5940313339233 8.54372501373291 2.90643811225891 5.28397750854492 30.1195220947266 33.1228981018066 45.5769157409668 7.02235507965088 6.26465892791748 4.57410717010498 0.723584413528442 0.711566865444183 0.682678997516632 0.662251949310303 0.837785959243774 0.71956741809845 0.516872644424438 0.506762325763702 7.02588796615601 0.597039103507996 0.857698202133179 0.770910263061523 0.907448470592499 3.67288208007812 1.0385479927063 -1.37227070331573 -0.797336041927338 -1.56557321548462 5.51811265945435 0.405670970678329 0.832497298717499 1.44089162349701 1.76181936264038 2.13644409179688 2.61031770706177 2.0748827457428 2.00765991210938 5.99353742599487 12.3602046966553 2.34948325157166 2.271071434021 2.32845783233643 2.38562345504761 2.46785044670105 3.01880025863647 4.62421560287476 6.04784870147705 6.80125141143799 7.73711252212524 8.72062683105469 9.59415721893311 10.2495250701904 11.2496385574341 11.00745677948 10.7559871673584 10.6752920150757 10.5099296569824 10.2002801895142 8.11810207366943 9.87303829193115 10.4046945571899 9.93948745727539 8.5117015838623 13.2339992523193 9.88308811187744 17.3033847808838 9.80322456359863 7.29031848907471 8.99951171875 16.6531391143799 16.0216846466064 9.21281242370605 9.36458301544189 9.06971740722656 4.42706489562988 3.5233736038208 4.05174446105957 7.15703439712524 10.5939931869507 17.8703269958496 10.3670797348022 7.13492965698242 7.4436149597168 9.77382278442383 7.16224384307861 10.9580869674683 14.4021806716919 11.367938041687 18.5518169403076 23.7954139709473 5.1304817199707 5.00080585479736 5.33475685119629 6.35616731643677 5.8457465171814 5.03115940093994 4.62266874313354 4.02670574188232 5.55469083786011 4.52363920211792 3.35590100288391 3.4464693069458 3.23035001754761 3.64002013206482 3.94735836982727 3.89540767669678 3.89653539657593 3.7834849357605 3.54425621032715 3.23729062080383 2.91098856925964 2.06526684761047 3.04726552963257 2.88762211799622 -0.476403057575226 -0.80111700296402 -1.59795904159546 -1.53391540050507 -1.48684597015381 -1.69584202766418 -2.05399870872498 -2.08878540992737 -1.9717880487442 -1.73602163791656 -2.47903490066528 -4.41847324371338 1.57924234867096 -4.7089467048645 9.42808246612549 24.641357421875 5.50373125076294 7.56629657745361 -3.90592932701111 25.932731628418 -1.63693237304688 1.1677405834198 -1.26018381118774 0.551146507263184 1.81757497787476 2.15265035629272 7.69699573516846 13.8291387557983
1.94914615154266 1.66132616996765 0.823977112770081 1.06765007972717 1.94009411334991 2.38859629631042 2.07230043411255 0.919001221656799 -1.10541355609894 19.5249137878418 -1.38707089424133 -1.69086098670959 -2.1812698841095 -0.887961149215698 -0.557186484336853 3.07132411003113 9.32758712768555 11.585259437561 11.6589498519897 11.9400568008423 5.55737972259521 9.84664630889893 9.19039535522461 9.5220308303833 8.55311012268066 7.02214336395264 9.79600524902344 9.99795150756836 9.69054985046387 12.4102802276611 12.90953540802 10.5668067932129 9.02134037017822 1.54137516021729 2.66445541381836 5.28702735900879 22.6117877960205 27.1615791320801 10.2612409591675 4.11699295043945 1.91316795349121 0.752602577209473 0.62320613861084 0.328097969293594 0.519272327423096 0.405741780996323 0.740368068218231 0.497635066509247 0.393959701061249 4.33220958709717 0.385094165802002 0.398457080125809 -0.300827533006668 -0.433193773031235 3.84880375862122 3.27316904067993 19.7917995452881 19.3268184661865 14.983606338501 7.92409086227417 -0.478704899549484 0.358205080032349 1.03583598136902 14.3468952178955 1.84407866001129 1.76417469978333 2.33716821670532 1.90936958789825 2.93730401992798 2.59896373748779 2.94549679756165 2.20135641098022 2.251389503479 1.97061848640442 1.88996529579163 2.5623767375946 2.84654998779297 4.19677686691284 6.15119075775146 6.70879888534546 8.26581954956055 9.07357025146484 9.52928924560547 10.4175424575806 10.2998838424683 10.1909284591675 10.11097240448 10.0596895217896 9.03046607971191 8.60928726196289 7.6128306388855 8.76082706451416 9.1407299041748 7.96298265457153 7.01464033126831 10.5017108917236 8.02592182159424 12.7360315322876 18.4614295959473 17.7679595947266 11.1548299789429 9.97250556945801 11.1933441162109 8.03290557861328 6.09953880310059 3.91519570350647 3.56197237968445 3.47986578941345 3.21840691566467 3.95744919776917 5.44504642486572 9.29303646087646 10.7474279403687 7.17633533477783 6.50172567367554 5.44374322891235 6.12465047836304 9.61565971374512 11.4222393035889 11.8223104476929 12.4996938705444 12.4108266830444 17.0777015686035 4.68604230880737 4.83838367462158 3.84743213653564 4.94093990325928 4.55485248565674 3.73166370391846 5.09964990615845 4.13626909255981 3.44163656234741 3.20059871673584 3.28930854797363 3.3072190284729 3.61064553260803 3.77886605262756 3.7304151058197 3.65023803710938 3.41096472740173 3.16426682472229 3.06010627746582 1.60331356525421 1.47881674766541 10.539758682251 13.0746564865112 22.3075141906738 -1.66976022720337 -2.10080814361572 -2.18403053283691 -1.76951909065247 -2.19416165351868 -2.3538863658905 -2.80756664276123 -2.52998328208923 -3.08140468597412 -2.82474660873413 -5.21716547012329 -4.37225008010864 33.9334411621094 6.32922077178955 5.80464887619019 18.045093536377 12.6862087249756 25.5433006286621 20.9705753326416 -1.85038161277771 -1.22515988349915 14.7690420150757 6.28642988204956 0.881768763065338 1.75802910327911 1.45399641990662 9.02374744415283
1.52266204357147 1.60819661617279 0.808141469955444 1.30221676826477 2.32431268692017 2.00775837898254 -1.40540313720703 -1.15395939350128 -1.72426640987396 -1.16248202323914 -1.50702595710754 6.93982124328613 0.713469266891479 1.24358487129211 0.626644849777222 9.57908153533936 9.75727939605713 10.5963821411133 10.4696521759033 7.19662523269653 7.52369213104248 7.31652688980103 7.24102401733398 8.91657447814941 8.01316261291504 6.58548641204834 9.04267692565918 8.79868316650391 10.1478891372681 10.3347663879395 9.00979709625244 9.34556674957275 5.22150230407715 2.09194397926331 3.72999668121338 16.6709423065186 19.1145267486572 20.2741546630859 5.34160280227661 4.16338872909546 3.27250957489014 1.50156009197235 0.601849377155304 0.173849031329155 0.48910915851593 0.347893238067627 0.706129312515259 0.657267570495605 0.552845656871796 -1.08560001850128 7.57405424118042 -0.660543918609619 -0.877507388591766 6.39452600479126 7.14461803436279 14.5672416687012 5.90554285049438 13.4999876022339 7.04473638534546 2.11815524101257 22.2091217041016 16.5868816375732 0.998910784721375 1.32234227657318 1.80170679092407 14.8587579727173 4.37101221084595 1.80596339702606 2.39787769317627 6.60585117340088 9.72434902191162 7.37194061279297 3.27935838699341 1.77261936664581 1.43543362617493 1.89060091972351 2.77141332626343 4.28689193725586 6.22128677368164 6.63547229766846 7.73625469207764 8.39196300506592 8.98496627807617 9.87922954559326 9.68231582641602 9.64647674560547 9.5148401260376 8.84484004974365 8.63204669952393 7.24913167953491 7.15604639053345 8.14600086212158 8.53429794311523 7.25642108917236 7.87478637695312 6.41593313217163 6.71919298171997 11.1815166473389 9.69548797607422 8.45680618286133 8.88795185089111 9.40410614013672 8.97082328796387 5.43131875991821 5.53386163711548 3.62407350540161 9.14142608642578 2.86895036697388 3.40706944465637 3.291823387146 4.65678739547729 8.25902938842773 6.7268271446228 8.37110328674316 9.51399230957031 14.8906002044678 5.54473543167114 6.5273699760437 7.82782888412476 8.90692043304443 14.1687898635864 14.3066806793213 4.33945178985596 17.5854873657227 3.77240324020386 3.37873435020447 2.96033430099487 4.11733198165894 3.36408066749573 4.72189950942993 3.79183983802795 2.45194005966187 3.11291742324829 2.91955423355103 3.32479619979858 3.62883615493774 3.54970502853394 3.54866099357605 3.45779967308044 3.22407722473145 2.90177774429321 2.55367970466614 33.4005546569824 0.958608567714691 2.09685158729553 25.2495937347412 -0.337959200143814 -1.83459067344666 -2.24375534057617 -2.38525533676147 -2.28034734725952 -2.59588813781738 -3.14533996582031 -3.28176736831665 -4.63873147964478 -4.00149583816528 -4.06285047531128 31.5988807678223 -3.55082988739014 -1.39379751682281 4.38883590698242 2.94648814201355 5.52193164825439 14.3892469406128 3.67974162101746 -3.2012460231781 -3.4423246383667 -1.50637197494507 5.11457586288452 11.2343282699585 15.1360740661621 2.70700645446777 6.09710168838501 2.45951986312866
1.59440433979034 0.787335634231567 1.01090097427368 1.86104118824005 2.25740718841553 -0.30600380897522 -1.44725632667542 -1.61929750442505 16.9913120269775 -1.55369579792023 7.02144527435303 10.5482940673828 30.2285003662109 3.85055017471313 1.3918137550354 1.3872389793396 9.09840965270996 9.71668529510498 9.56974411010742 6.6142110824585 6.30604124069214 6.73678874969482 8.18524551391602 7.39890193939209 6.13251638412476 6.25949668884277 8.43585014343262 8.20805835723877 9.2083854675293 9.32903575897217 7.97822618484497 6.45298624038696 1.2937867641449 1.98912596702576 3.65579509735107 13.9765539169312 16.0628967285156 8.02552318572998 4.23025131225586 3.98430871963501 3.50455069541931 -1.33457672595978 -1.54843139648438 1.03229868412018 0.679025590419769 0.388358622789383 0.668793916702271 -1.55025386810303 -0.824777722358704 23.8901138305664 -0.261549770832062 -0.759010672569275 3.32451128959656 7.05124568939209 6.62721014022827 0.976321995258331 15.0132369995117 1.83389854431152 2.0496678352356 6.22229194641113 7.74987602233887 1.43768525123596 21.8626327514648 17.8991966247559 1.74114179611206 1.65250682830811 4.13474416732788 1.95853435993195 1.92561078071594 2.6366183757782 1.99094641208649 1.95787143707275 1.32266211509705 1.35529553890228 1.22737884521484 2.1182975769043 10.5956754684448 4.33126211166382 5.86045837402344 6.58155393600464 7.36724662780762 8.0183801651001 9.13796329498291 8.92774486541748 8.96813201904297 8.83087158203125 9.00433921813965 7.91336059570312 7.41293525695801 6.46783542633057 7.27314853668213 7.71387767791748 6.87897968292236 6.15655755996704 6.48857545852661 6.11060428619385 7.76713180541992 7.83678960800171 7.77295446395874 8.18612003326416 8.77480697631836 7.27846574783325 6.15989208221436 12.9495973587036 5.5381932258606 6.07422924041748 3.04763221740723 3.29367113113403 3.41688418388367 3.28617358207703 3.76619935035706 7.45444250106812 5.923095703125 5.7140040397644 17.5963325500488 5.41306209564209 4.90121412277222 4.99408912658691 5.03237867355347 5.36685609817505 5.04492902755737 4.26348876953125 9.43979167938232 4.14591550827026 3.68347573280334 3.01630735397339 2.34872007369995 2.13267827033997 4.36413621902466 3.48631310462952 2.82638478279114 2.3091926574707 2.96796369552612 2.98840665817261 3.29861640930176 3.46989440917969 3.39770460128784 3.33522605895996 3.13035535812378 2.90497279167175 2.76714587211609 1.56029677391052 0.917426705360413 6.34649085998535 0.635969758033752 4.45825624465942 7.7384614944458 3.58670735359192 0.185813277959824 12.2473821640015 15.0515041351318 -3.17174506187439 -3.31378293037415 6.98528003692627 27.7932605743408 36.9692001342773 25.1475009918213 -5.08049774169922 -5.0583930015564 -1.35793697834015 13.1722269058228 2.38342356681824 5.48117017745972 7.99536657333374 7.0990777015686 -3.36103510856628 -2.47042870521545 -1.53828048706055 -1.64057278633118 -0.822671175003052 -1.61721336841583 -0.771386682987213 -0.0966509804129601 0.999846756458282
1.54573214054108 0.796777248382568 1.27214968204498 0.533996105194092 -0.184040814638138 -1.03360688686371 -1.72974443435669 1.80390441417694 1.42122650146484 -1.70819222927094 2.87901854515076 9.99346923828125 11.3731336593628 31.2044982910156 2.08689332008362 5.56668519973755 4.35660171508789 8.57768249511719 8.78434181213379 5.79124641418457 5.89321804046631 6.35873937606812 7.65989446640015 6.93846750259399 5.75813436508179 7.71907043457031 7.60958480834961 8.04669666290283 8.17195129394531 7.22357511520386 7.34523105621338 3.76917362213135 1.64274060726166 2.87455058097839 11.3317594528198 13.1001844406128 12.4771699905396 3.6649010181427 3.53200054168701 3.27795672416687 2.35291242599487 32.3387222290039 10.5648431777954 -1.26857841014862 0.320081293582916 0.604323744773865 -1.38775241374969 3.21964192390442 -1.37676537036896 -0.328996241092682 -0.82916784286499 39.6500473022461 5.73678493499756 3.51620626449585 5.11862373352051 0.821028172969818 -1.72038865089417 -0.599631547927856 5.26390075683594 3.56665897369385 3.76585578918457 0.896752834320068 3.76224327087402 1.73168933391571 8.59365558624268 16.6534652709961 1.41557121276855 1.744473695755 1.99555683135986 1.87303674221039 1.21085405349731 1.72160446643829 5.88798475265503 1.12429428100586 16.3795719146729 17.9205150604248 2.73867225646973 4.26887655258179 5.00342512130737 6.90692377090454 7.5120096206665 7.93345546722412 8.62755298614502 8.40777969360352 8.36910915374756 8.2236213684082 7.83882808685303 7.54999876022339 5.98780679702759 6.10205793380737 6.82415008544922 7.19411993026733 6.03990697860718 5.54662179946899 6.04466867446899 5.91608047485352 6.11489820480347 6.69736814498901 7.78528356552124 7.74896764755249 8.32998275756836 6.27017211914062 4.95710563659668 3.79436635971069 3.11520290374756 3.89964151382446 2.96757793426514 11.5936822891235 6.83836317062378 20.6443672180176 3.62994861602783 4.29975748062134 4.94685983657837 5.08660078048706 10.5089483261108 5.28787612915039 4.70708560943604 4.69580841064453 4.74537324905396 4.86189556121826 4.19226408004761 8.55324077606201 4.41198015213013 4.28559970855713 3.02185225486755 2.62973213195801 1.61916470527649 1.38102853298187 1.73050880432129 3.21206593513489 2.09881019592285 2.18298602104187 2.62537527084351 3.00864744186401 3.14524960517883 3.25383257865906 3.25268578529358 3.16369366645813 2.96259832382202 2.61827754974365 2.34435987472534 0.921134173870087 8.68154335021973 3.20791459083557 6.37430429458618 -1.0943431854248 5.14430236816406 7.75462245941162 8.95437812805176 -2.51794362068176 -0.872457206249237 8.31571865081787 22.7890319824219 15.3301620483398 16.4034938812256 -0.99007773399353 12.8536329269409 17.760570526123 25.423770904541 0.782936811447144 3.03029894828796 1.71886622905731 10.3810844421387 16.1977481842041 11.2437171936035 7.25106573104858 35.402645111084 -2.21505975723267 -1.7774692773819 -1.40276789665222 34.7911224365234 26.8384742736816 22.5142803192139 -0.191024407744408
