NCOLS 174
NROWS 32
XLLCORNER 353680
YLLCORNER 6699856
CELLSIZE 16 
NODATA_value -3.4e+38 
-1.36158168315887 0.0657968893647194 33.9826240539551 -0.113872684538364 -0.0382821373641491 0.0335071347653866 1.13737261295319 1.82713353633881 1.30594861507416 0.918948113918304 1.41088700294495 1.81295490264893 1.18076884746552 1.63139450550079 2.87696075439453 2.07539749145508 2.29130911827087 1.97777664661407 1.84977841377258 2.14944171905518 3.26710033416748 3.31852412223816 4.17357206344604 3.63009691238403 1.9895738363266 2.07243800163269 2.08439493179321 2.43939018249512 2.28588771820068 2.28403806686401 2.28795790672302 2.0553994178772 2.03786849975586 1.94651055335999 1.82732129096985 1.78451824188232 1.91517901420593 2.05426120758057 1.83255434036255 1.72753715515137 1.69385802745819 1.72212696075439 1.73166680335999 1.943638920784 1.8292977809906 25.2884006500244 1.06880843639374 0.500871121883392 2.0624692440033 1.60030460357666 1.51658546924591 1.47390818595886 1.5400059223175 1.47608888149261 1.88334274291992 1.47389125823975 1.58475053310394 1.4194039106369 1.38518023490906 1.30280816555023 1.55093824863434 2.32004427909851 2.84959983825684 2.7644784450531 5.22318410873413 5.7366771697998 5.10598945617676 5.78928327560425 3.11769700050354 6.53627634048462 3.42715334892273 5.06883335113525 2.87050223350525 21.608081817627 3.79425263404846 4.65963649749756 5.35946273803711 18.3974475860596 4.455970287323 3.96163868904114 8.65708923339844 4.57174682617188 4.53036069869995 4.75714063644409 5.42402935028076 5.11731052398682 4.70196628570557 6.80113363265991 13.5497093200684 3.33087420463562 9.36419868469238 8.0202112197876 12.6345367431641 21.038366317749 19.8350677490234 17.1439838409424 16.2335319519043 17.9571590423584 18.5804424285889 8.9114465713501 14.7214822769165 13.7065162658691 18.6239700317383 26.5701599121094 22.6557731628418 20.3701362609863 5.96963024139404 2.06919836997986 1.60184168815613 2.39652466773987 2.74905610084534 3.54356813430786 5.80181121826172 6.05393218994141 7.026780128479 7.11604690551758 7.42059373855591 6.43657827377319 6.43976211547852 6.80300712585449 9.18828010559082 12.533519744873 24.6226348876953 11.367751121521 2.63426280021667 9.96912288665771 2.57147288322449 3.85967659950256 4.55740833282471 5.11311292648315 7.36273288726807 8.17106342315674 7.7886848449707 8.1776123046875 10.6739063262939 11.9878644943237 10.01771068573 10.0218696594238 10.2302513122559 10.4275760650635 10.6472539901733 11.5759038925171 10.6858434677124 10.5728015899658 8.60162544250488 8.44200992584229 12.2768907546997 8.72406196594238 10.791877746582 5.83045721054077 7.10827493667603 15.1743288040161 16.5307426452637 20.5331573486328 13.4934301376343 20.7399883270264 16.1565475463867 9.26891994476318 9.19316387176514 4.8789701461792 1.23031771183014 1.4941178560257 1.16252708435059 1.10080468654633 1.2818728685379 1.29971385002136 1.21005022525787 1.06994676589966 1.11030662059784 1.53197419643402 2.88145780563354 5.12149477005005 4.05625915527344 2.57253813743591
-0.726895332336426 3.09560322761536 -0.326955765485764 -0.196865871548653 -0.126315519213676 1.12334287166595 1.68995761871338 1.21851074695587 0.661863386631012 1.38242888450623 1.72321677207947 1.04118597507477 1.2385995388031 2.56778907775879 1.87659406661987 2.13018035888672 1.77679872512817 1.80790507793427 2.01172137260437 3.15419387817383 3.87656259536743 3.81942677497864 3.44139409065247 1.94778537750244 2.01485681533813 2.02245378494263 2.36627316474915 2.17599868774414 2.26165771484375 2.31633305549622 2.07086491584778 1.99225080013275 1.74728059768677 1.70523202419281 1.63512885570526 1.49180960655212 1.71976792812347 1.82333838939667 1.72367060184479 1.67375767230988 1.66863894462585 1.66387820243835 1.85761713981628 0.311475485563278 0.868811070919037 0.0726712197065353 0.114456325769424 -0.108749404549599 1.37061548233032 1.36518967151642 1.34508466720581 1.39369583129883 1.2994658946991 1.64648413658142 1.2882194519043 1.36677098274231 1.31425189971924 1.12076818943024 1.03163492679596 1.38400530815125 1.98963737487793 2.42160820960999 2.30589771270752 4.31635046005249 1.60320222377777 3.9555652141571 3.16289663314819 4.46136951446533 5.10072565078735 3.26057386398315 4.46563529968262 16.6798629760742 3.05340814590454 14.6065244674683 13.4616069793701 4.64964294433594 9.63640308380127 7.88900375366211 15.3348579406738 6.03574085235596 15.1253356933594 24.527027130127 5.17551946640015 4.0516152381897 4.83874464035034 4.32369089126587 5.72275733947754 9.42987155914307 9.40479946136475 5.98270606994629 6.71638870239258 8.45333862304688 4.54269170761108 10.26158618927 10.8678693771362 12.393856048584 17.1606864929199 17.2350692749023 18.9754276275635 10.4987211227417 10.87633228302 17.3152675628662 19.9518165588379 25.5846920013428 31.6212139129639 22.1585292816162 17.1945896148682 14.2845029830933 2.16720080375671 2.58933663368225 3.13513016700745 3.11460375785828 4.58869123458862 4.14550113677979 6.48552370071411 6.38456869125366 6.33314800262451 6.33563089370728 6.70173931121826 7.05912780761719 9.84717082977295 7.16625499725342 26.9709415435791 20.3812465667725 5.55521059036255 2.54078006744385 3.71343350410461 4.11175155639648 4.56880378723145 5.02344846725464 5.12616014480591 5.85807514190674 7.77599096298218 8.29095649719238 8.81070804595947 8.77981281280518 8.95658493041992 9.4514627456665 9.81483268737793 10.1193923950195 10.8066339492798 10.2216958999634 10.1004285812378 8.18933486938477 9.00255393981934 10.0477142333984 7.1955451965332 8.42437267303467 5.31421089172363 6.72256898880005 13.8988647460938 12.0839576721191 16.4164524078369 11.4633674621582 13.3861789703369 10.6359529495239 7.51820611953735 7.99953699111938 8.4113655090332 7.5588173866272 3.18409943580627 0.623016357421875 0.74965512752533 0.880842864513397 1.11006927490234 1.10367226600647 1.00890624523163 1.03586864471436 1.29919362068176 2.09641075134277 3.21446537971497 3.86521029472351 5.6436185836792 4.36179971694946
14.7963027954102 -0.718712627887726 -0.452273964881897 0.426454544067383 1.02169251441956 1.60942029953003 1.14128637313843 0.610573768615723 1.32200026512146 1.68578708171844 1.02122318744659 1.18704211711884 2.32644510269165 1.65764498710632 1.90603625774384 1.68710935115814 1.73746418952942 1.87637794017792 2.87346243858337 3.74222135543823 3.18880462646484 1.9693341255188 1.92057549953461 1.9848804473877 1.97908389568329 2.29993438720703 2.11524128913879 2.21147203445435 2.25833535194397 2.03096985816956 1.98495173454285 1.87089109420776 1.70448529720306 1.61988592147827 1.38280606269836 1.67873072624207 1.77749729156494 1.6938453912735 1.66065299510956 1.65320885181427 1.77566206455231 1.79059422016144 32.6402397155762 0.496874034404755 -0.406784743070602 -0.255599588155746 -0.468642860651016 -0.725059270858765 -0.300420731306076 1.19644057750702 1.23547112941742 1.20675790309906 1.50122475624084 1.18662238121033 1.15542364120483 1.10851883888245 0.939908802509308 0.901402592658997 1.27171397209167 1.69563853740692 2.09705209732056 1.9776748418808 3.65758848190308 1.37920570373535 3.46339178085327 2.006667137146 3.53394865989685 2.2969799041748 3.13015627861023 3.73786568641663 15.4413585662842 26.3186626434326 3.65534114837646 7.03182363510132 4.47188425064087 6.7986273765564 4.14161825180054 3.67644691467285 4.78285026550293 8.66296768188477 12.9423398971558 17.0580444335938 21.3361682891846 4.73931837081909 4.16147994995117 4.88389205932617 6.86928701400757 5.71269845962524 6.23812198638916 4.60837984085083 6.65299987792969 13.8078384399414 6.97533464431763 7.26155424118042 9.37197685241699 12.9810466766357 14.174090385437 18.5720176696777 22.8790798187256 14.8341197967529 13.0808887481689 15.2444734573364 19.487361907959 23.3946723937988 36.352954864502 28.8389225006104 14.1783027648926 14.8051414489746 2.42725086212158 2.59827518463135 2.92674684524536 2.97344064712524 2.77037978172302 3.61965918540955 4.64409971237183 5.3545937538147 5.38098239898682 5.75087451934814 5.00047779083252 4.76204633712769 12.4049272537231 16.3072204589844 14.2854566574097 5.39177560806274 11.9703407287598 2.913405418396 3.90532279014587 3.93055319786072 4.55669689178467 4.69040536880493 4.89362716674805 7.18578624725342 7.57694530487061 7.8084659576416 7.84446954727173 7.8722939491272 8.47168254852295 8.75553607940674 9.47017192840576 9.97883129119873 9.58973407745361 9.49741744995117 7.73694181442261 8.10067844390869 6.18853330612183 6.37563848495483 7.04054403305054 5.16036605834961 6.07877922058105 12.2645845413208 13.0464019775391 14.176739692688 7.74940156936646 10.902322769165 8.2783374786377 6.30868577957153 6.92962551116943 6.78531885147095 6.7982006072998 6.98373651504517 5.07665586471558 2.29322671890259 0.72644704580307 0.800234079360962 0.893413364887238 0.900403141975403 0.957273423671722 1.13133859634399 1.69505858421326 2.29530334472656 2.81455373764038 3.78883743286133 9.20420455932617 13.1858692169189
11.0548295974731 -0.648035287857056 9.62591743469238 0.0498147010803223 1.44831454753876 1.08220791816711 0.545438170433044 1.19004845619202 1.5666196346283 0.975887358188629 1.08240020275116 2.18860244750977 1.52134501934052 1.71680045127869 1.4656093120575 1.62808072566986 1.74234354496002 2.66658091545105 3.46648645401001 3.13686275482178 1.96739137172699 1.87997031211853 1.95116579532623 1.95136547088623 2.25309729576111 2.06369066238403 2.15713548660278 2.20408892631531 1.92865562438965 1.98250722885132 1.78390061855316 1.73772430419922 2.10334324836731 1.65463018417358 1.66136336326599 1.73988628387451 1.64497458934784 1.6121838092804 1.6197407245636 1.74933040142059 1.61975514888763 17.7211952209473 29.1183223724365 32.2211647033691 2.12460732460022 17.7639026641846 5.89271402359009 -0.489763885736465 -0.305372267961502 -0.115557409822941 1.08146452903748 1.35605669021606 1.11228382587433 1.06238234043121 0.589923083782196 0.826857089996338 0.774366199970245 1.1336452960968 1.36912786960602 1.7458860874176 1.66192865371704 3.1026177406311 1.13538265228271 3.02286410331726 1.36275827884674 3.04284882545471 1.80297684669495 2.99013090133667 3.73149490356445 10.2869482040405 13.6201429367065 11.3015241622925 4.84820604324341 3.72779130935669 3.45892834663391 15.0209341049194 3.12903475761414 4.67058515548706 3.12139749526978 8.49654865264893 8.03891754150391 11.3400964736938 4.56748819351196 4.09600257873535 4.88564205169678 3.13422274589539 2.97467827796936 3.63787984848022 3.60929894447327 4.05019187927246 3.77747988700867 5.20881843566895 6.15713977813721 7.20767736434937 9.24314022064209 10.3681879043579 13.9478569030762 19.5345363616943 24.4494514465332 13.6468553543091 13.8978462219238 14.4526958465576 18.0370426177979 21.565788269043 28.5285663604736 38.2515869140625 28.7103157043457 19.8745403289795 8.36226844787598 9.09768104553223 2.71606254577637 2.47262620925903 2.73385143280029 2.92070007324219 4.31507253646851 5.07686471939087 4.9473729133606 3.25166583061218 3.6641891002655 6.81755256652832 7.25041770935059 8.31602382659912 9.6790771484375 8.26804351806641 2.90473604202271 2.75955677032471 2.73702025413513 4.02133941650391 3.941730260849 4.28442144393921 4.85298728942871 4.86539173126221 7.1997447013855 7.25702047348022 7.22096586227417 7.6780252456665 7.95468902587891 8.62730312347412 8.82542037963867 8.888258934021 8.8011646270752 7.16808271408081 7.13695335388184 5.71765565872192 5.59708023071289 5.08215999603271 4.85258960723877 5.63808298110962 10.9373140335083 11.1955127716064 8.57239532470703 8.54990386962891 9.33778667449951 6.93686056137085 5.64440870285034 5.99796581268311 5.78962802886963 6.00070095062256 5.80199146270752 5.7966423034668 6.16928195953369 4.91459321975708 1.73227179050446 0.71852833032608 0.661538362503052 0.649729430675507 1.17099237442017 1.44013500213623 1.83983504772186 2.19604849815369 2.70671319961548 7.96614742279053 11.5195941925049 13.6966466903687
17.911283493042 5.93770170211792 29.3419303894043 -0.824729561805725 -1.30931544303894 0.982228517532349 1.09474122524261 1.47014677524567 0.890252113342285 1.01580250263214 2.07194232940674 1.44098305702209 1.6299467086792 0.674223959445953 1.13667273521423 1.58727526664734 2.46948719024658 3.14757585525513 2.80653476715088 1.92185294628143 1.83092558383942 1.90597224235535 1.91538894176483 2.21562051773071 2.02905654907227 2.11415100097656 2.15268969535828 1.77944219112396 1.95684599876404 1.77386868000031 1.71110308170319 1.91161394119263 1.79279780387878 1.65925538539886 1.72992777824402 1.6150826215744 1.55252361297607 1.55298256874084 1.66054940223694 1.54501068592072 12.0167903900146 15.5366640090942 24.0163860321045 38.1918983459473 9.28580284118652 20.1252765655518 12.0427408218384 2.65267109870911 -0.202054411172867 -0.449969679117203 -0.247748836874962 1.00173103809357 0.926022052764893 0.505871593952179 0.457841217517853 0.695944666862488 0.995120286941528 1.08619368076324 1.41531813144684 1.33283376693726 2.58111143112183 0.847913205623627 2.50210189819336 1.1073796749115 2.60614633560181 1.72965466976166 2.86627411842346 3.15285897254944 7.52094888687134 8.9184045791626 5.36051797866821 4.05001831054688 14.9269361495972 24.346887588501 7.12560701370239 23.6696300506592 4.41030073165894 2.9195351600647 1.52550840377808 4.58193349838257 5.91622829437256 4.25130414962769 3.94937467575073 2.94252276420593 2.39224672317505 2.70633792877197 3.4857439994812 3.3226044178009 3.61679458618164 3.59911513328552 4.91462373733521 5.13293743133545 7.10374927520752 7.2927393913269 8.11553859710693 10.252158164978 13.2438697814941 14.388786315918 19.3569831848145 12.7198925018311 14.8805379867554 14.2624893188477 18.260570526123 19.9480304718018 31.5379638671875 31.0344734191895 23.2255229949951 23.513635635376 23.7905025482178 26.247013092041 24.791051864624 2.65009307861328 2.68624544143677 3.66840672492981 3.50095105171204 3.65272545814514 18.0412979125977 3.16988086700439 6.07102155685425 7.07200288772583 12.5720777511597 9.47992038726807 20.8209705352783 21.4888229370117 5.07694911956787 3.18010711669922 3.07977151870728 3.81433796882629 4.010657787323 4.4232063293457 4.85501289367676 5.16384887695312 5.19972896575928 6.70746278762817 7.1164379119873 7.31040000915527 7.92279195785522 7.79190969467163 7.67339515686035 8.16188049316406 6.64581680297852 6.3377046585083 5.41948747634888 4.92262887954712 4.75948190689087 4.69321584701538 5.19988584518433 9.87656211853027 9.79385948181152 7.60346603393555 7.34219884872437 6.54566335678101 5.82701349258423 4.77343797683716 5.2206072807312 4.96468687057495 5.24225997924805 5.09035396575928 4.81610870361328 4.96522617340088 4.62182760238647 4.22482013702393 2.95249652862549 0.555853307247162 0.468871295452118 0.545345544815063 0.987306177616119 1.61996614933014 1.86468863487244 2.17251396179199 6.99438047409058 10.1052989959717 11.7953538894653 12.1140966415405
4.44750165939331 8.24777030944824 36.6469039916992 0.799243569374084 -1.32816386222839 -1.4894152879715 1.11189198493958 0.714868009090424 0.949484288692474 1.93761682510376 1.3630086183548 1.5675528049469 0.671830892562866 1.06886696815491 1.46054172515869 2.2730770111084 2.90673303604126 2.60057163238525 1.80323565006256 1.80811762809753 1.86244642734528 1.87079477310181 2.16761350631714 1.99869763851166 2.08281970024109 2.11211538314819 1.73370230197906 1.91790366172791 1.67978346347809 1.69553244113922 1.76214289665222 1.75840985774994 1.91454231739044 1.74750018119812 1.63018321990967 1.54443204402924 1.50729811191559 1.57313764095306 1.42993092536926 8.64242649078369 10.2586450576782 16.4478988647461 21.2740345001221 30.2335739135742 4.74701404571533 0.604402482509613 6.73064613342285 3.1614773273468 -0.635672807693481 -0.938833475112915 -0.434935003519058 0.772837579250336 0.356565207242966 0.377819329500198 0.651690542697906 0.931273639202118 0.879320204257965 1.13229656219482 1.01841819286346 2.12647747993469 0.73619282245636 2.08852887153625 0.953920245170593 2.14566206932068 1.62428557872772 2.74139380455017 5.12999868392944 5.86017179489136 6.47406101226807 3.61581778526306 3.8704092502594 7.15926599502563 12.5738649368286 4.92889451980591 3.14826774597168 4.34127187728882 38.35791015625 12.7560195922852 1.11274909973145 1.69368016719818 3.41809415817261 3.63422226905823 2.58691620826721 7.53308248519897 18.0731620788574 5.03353595733643 3.53596925735474 3.47998237609863 14.1228532791138 2.50614428520203 4.71584558486938 5.39665651321411 6.3124942779541 7.33033323287964 9.18249130249023 9.79046058654785 11.0600728988647 12.5286874771118 19.8934135437012 12.6016759872437 15.2468767166138 16.2268142700195 15.7656583786011 23.5347232818604 18.8217525482178 44.3278732299805 33.7059936523438 20.6567726135254 23.3350524902344 23.7745361328125 25.0973682403564 15.0944395065308 3.60873937606812 7.77290010452271 3.4071352481842 2.62147784233093 2.6090784072876 4.73082304000854 10.3791379928589 16.7391109466553 29.3225402832031 29.7528705596924 23.3120174407959 27.2074928283691 11.4876823425293 6.59438037872314 3.48949837684631 3.95043134689331 4.15128135681152 4.16583919525146 4.57471609115601 5.17912435531616 3.80463004112244 4.67679834365845 6.78924942016602 7.37105226516724 7.02940320968628 6.92487525939941 6.09563112258911 6.10180521011353 5.78378820419312 5.15173768997192 4.48709297180176 4.58721685409546 4.54481983184814 4.82633018493652 8.99818325042725 8.70648288726807 6.84281301498413 6.41196346282959 4.54643821716309 4.07610845565796 4.12146472930908 3.96880078315735 4.19584655761719 4.5204439163208 4.37233972549438 4.20808219909668 4.14716577529907 3.92375946044922 3.58655166625977 3.36982893943787 3.74581289291382 3.06165504455566 0.768760561943054 0.611590445041656 0.942894995212555 1.22361874580383 1.73574018478394 6.20971298217773 8.74861145019531 9.76098346710205 9.19404602050781 8.04301261901855
17.3653984069824 21.2490978240967 41.3823089599609 6.41332197189331 10.1087732315063 -1.80566453933716 -1.98049092292786 -0.282485723495483 1.7419558763504 1.27455151081085 1.46147787570953 0.633466958999634 1.02676713466644 1.37803161144257 2.11089992523193 2.69961190223694 2.38829493522644 1.70185422897339 1.70308232307434 1.81621944904327 1.84574258327484 2.11612224578857 1.95961761474609 1.88315272331238 2.08415794372559 1.7099951505661 1.88134729862213 1.57962381839752 1.58781790733337 1.61345934867859 1.64489436149597 1.9080970287323 2.04957270622253 1.88207423686981 1.87825322151184 2.05948972702026 1.56465637683868 6.29546022415161 -0.700594007968903 -0.577454268932343 -1.13445711135864 14.0441379547119 15.8061561584473 36.4788589477539 38.8577156066895 -1.44246411323547 1.65792226791382 9.32159423828125 3.09318470954895 -1.65331339836121 -1.45663201808929 -1.15972745418549 0.27033868432045 -0.476236641407013 -0.469582825899124 0.941418826580048 0.99775630235672 0.930707693099976 1.76543927192688 0.637273550033569 1.76826953887939 0.831310033798218 1.76957190036774 1.51652550697327 2.5895619392395 4.12626791000366 4.39047574996948 5.00035572052002 3.455153465271 3.69816303253174 4.45299053192139 8.27997589111328 3.64574956893921 21.6342296600342 4.23016548156738 22.9520244598389 16.0951614379883 1.87721884250641 0.927763223648071 1.69077336788177 1.94415998458862 1.91623771190643 3.96884346008301 9.952561378479 3.31783127784729 3.19891285896301 3.45115065574646 4.41132640838623 15.004017829895 3.92439794540405 4.85250043869019 5.70424556732178 6.76265382766724 8.01070976257324 7.77912425994873 9.19642734527588 11.1225147247314 12.0102272033691 18.839563369751 19.0274868011475 15.1280126571655 17.9444122314453 16.3191051483154 15.9580869674683 20.6306667327881 27.1380233764648 22.5566425323486 19.1589946746826 19.5377960205078 20.9826469421387 20.7733974456787 7.19983291625977 7.84242486953735 11.4442539215088 2.60388565063477 2.33059430122375 4.15208530426025 11.6143312454224 7.85941743850708 12.0375337600708 15.1600303649902 20.009614944458 25.8980579376221 25.7192974090576 27.8243808746338 10.9911489486694 3.85692143440247 15.7043657302856 18.5541877746582 6.25204420089722 4.45777082443237 14.2706155776978 4.22958278656006 4.47027158737183 5.63567876815796 6.51398468017578 6.40293979644775 5.51367998123169 4.87039947509766 5.276939868927 4.88717746734619 4.34330320358276 4.43404674530029 4.39387083053589 4.50411558151245 8.25827884674072 7.84521102905273 6.23151683807373 5.69189500808716 3.96945428848267 3.63588833808899 3.62471437454224 3.49406909942627 3.54312777519226 3.30108284950256 3.56405687332153 3.58862495422363 3.4661078453064 3.29573702812195 2.93766689300537 2.7868332862854 3.17152786254883 3.05419516563416 3.47615528106689 2.73943591117859 0.939183175563812 0.826603829860687 1.03209507465363 5.39666271209717 7.9781813621521 6.82405376434326 8.17605495452881 16.5776386260986 8.72274589538574
14.8231678009033 24.2507190704346 40.4531898498535 11.9506273269653 -1.83608150482178 2.42222118377686 -0.856489360332489 -0.596038162708282 1.08526885509491 1.33204567432404 0.903536140918732 0.961575150489807 1.32542073726654 2.01982235908508 2.53806757926941 2.21504759788513 1.47383224964142 1.42131698131561 1.46790838241577 1.70645248889923 2.08549451828003 1.92482531070709 1.85154044628143 2.05174612998962 1.69448614120483 1.85716605186462 1.51177871227264 1.50050139427185 1.54886114597321 1.59955525398254 1.65622675418854 1.8689661026001 2.25752425193787 2.51712155342102 2.08349084854126 1.86370253562927 5.79439306259155 48.0200309753418 4.50569534301758 -1.56955718994141 -0.959250211715698 9.607177734375 4.19638776779175 -0.387499541044235 9.74431991577148 -0.783064663410187 -0.404111355543137 0.631221413612366 8.84214115142822 -1.5120906829834 -1.84463214874268 -1.06284165382385 30.1782989501953 34.7274627685547 0.832947075366974 0.683357536792755 0.867382884025574 1.58381962776184 0.57740306854248 1.50826847553253 0.728323400020599 1.48645973205566 1.42265856266022 2.43892216682434 3.157555103302 3.34968900680542 3.22999715805054 3.31622242927551 3.54617357254028 3.64021229743958 6.00617456436157 3.50192928314209 10.846019744873 4.06544876098633 16.2822856903076 41.3891944885254 24.0994205474854 0.303296357393265 0.634075880050659 1.66776537895203 13.1866998672485 19.2695732116699 4.04836273193359 2.95175099372864 2.989342212677 3.21728110313416 3.3053891658783 10.0863618850708 2.74733781814575 4.30885314941406 5.46763610839844 6.27086305618286 7.24277877807617 6.33110427856445 7.64477252960205 7.88442230224609 10.0741004943848 11.8978986740112 14.2298707962036 17.1585464477539 15.2392091751099 15.1318836212158 17.0253143310547 16.2533302307129 19.0545883178711 17.3683090209961 18.0063705444336 15.3298654556274 11.4854173660278 13.8143577575684 11.8790655136108 6.55113220214844 7.58546543121338 21.3737678527832 17.1257095336914 9.02262783050537 6.22683191299438 8.16946887969971 15.3148584365845 21.4016704559326 18.2388000488281 19.7309894561768 22.4139404296875 21.6079063415527 26.2229156494141 30.1335029602051 10.7745628356934 10.3627910614014 13.5783042907715 9.38116073608398 7.86451292037964 5.41718435287476 4.02018737792969 4.98696327209473 3.23898553848267 3.1950101852417 4.87774562835693 4.44990062713623 4.3570761680603 4.58863544464111 4.19594287872314 4.28857660293579 4.24913311004639 4.20787239074707 7.63825798034668 7.1313419342041 5.72740888595581 5.12726831436157 3.53470849990845 3.27594017982483 3.22600340843201 3.12631130218506 3.12423038482666 2.85566115379333 2.86392521858215 2.68788766860962 2.88689875602722 2.80897450447083 2.44387936592102 2.32493042945862 2.43044900894165 2.49894523620605 2.59599709510803 2.54940748214722 2.85267281532288 2.70922231674194 1.17130303382874 4.81943225860596 7.0681324005127 17.8052597045898 12.1632223129272 8.38069248199463 16.1437034606934 15.4290981292725
17.0900783538818 23.471607208252 35.3858985900879 44.6351737976074 14.5436182022095 2.94130396842957 -0.863379538059235 -0.912376642227173 -1.63780450820923 0.712428510189056 1.16108572483063 1.26154792308807 1.94446611404419 2.42978668212891 2.12286114692688 0.850599527359009 0.86896425485611 0.947411119937897 1.27040576934814 1.58777856826782 1.62383794784546 1.53106951713562 1.65667259693146 1.52596533298492 1.50431215763092 1.48310279846191 1.42768454551697 1.41505217552185 1.49549734592438 1.70575201511383 1.7021050453186 1.91833901405334 2.36084651947021 2.96474099159241 2.86223101615906 5.40531730651855 30.1613883972168 42.9643745422363 22.7504463195801 -1.12010383605957 -0.744999289512634 2.78299069404602 38.594367980957 39.6345024108887 9.74793148040771 -1.4217244386673 -1.4075163602829 5.96458196640015 9.80818271636963 3.87717461585999 -1.28824150562286 -1.08669650554657 2.25983595848083 0.73083359003067 0.637664377689362 0.832235991954803 1.42989373207092 0.502725005149841 1.25054061412811 0.648028075695038 1.25080609321594 0.918951570987701 2.30853247642517 2.54946064949036 2.87533855438232 3.04584813117981 3.16516971588135 3.40065765380859 4.10656356811523 4.58186864852905 4.98266744613647 7.02322769165039 8.77252769470215 12.2874250411987 24.3779544830322 28.5370197296143 41.7108345031738 17.3561058044434 0.757460296154022 9.94637298583984 12.0568580627441 9.65397071838379 13.6807861328125 16.0526828765869 3.05854797363281 3.0436589717865 5.35604000091553 2.36243510246277 4.83252096176147 5.08838939666748 5.82652473449707 7.08307313919067 5.78454971313477 6.98557043075562 7.73633098602295 7.79618072509766 9.64443016052246 12.6492652893066 13.5427150726318 14.2497358322144 18.0055866241455 16.7825546264648 15.9319858551025 17.0062236785889 27.2910213470459 13.913179397583 23.6130180358887 34.9261093139648 20.3731651306152 11.0462312698364 12.4308414459229 5.06351518630981 12.4327840805054 15.903525352478 11.3101396560669 7.04372692108154 7.91159152984619 18.2823734283447 15.2847089767456 17.5793514251709 15.4308309555054 17.8177680969238 18.5202693939209 21.3556842803955 16.0504989624023 9.32555103302002 12.6276168823242 4.19164323806763 4.28486585617065 5.24951076507568 3.9369101524353 3.91204357147217 4.56734466552734 23.443286895752 10.1561794281006 2.57136535644531 1.79829907417297 3.89362144470215 4.29865789413452 4.02751111984253 4.14697074890137 4.11660194396973 3.82788467407227 7.09577703475952 6.55112743377686 5.2937912940979 4.6732816696167 3.2014536857605 2.99010896682739 2.91816473007202 2.82887077331543 2.76482629776001 2.53222441673279 2.49569487571716 2.28778028488159 2.25214862823486 1.89387667179108 2.03068375587463 2.00876307487488 2.10142350196838 2.02640509605408 1.94553291797638 1.8936368227005 1.67715120315552 1.59533095359802 0.990763485431671 4.40930032730103 6.36014127731323 7.8681640625 7.74658203125 7.48433494567871 7.69681787490845 9.87876605987549 12.7367467880249
16.4331150054932 20.1535415649414 26.705846786499 37.7751045227051 27.8243751525879 5.45603561401367 -1.10206973552704 -1.98068130016327 -1.45970284938812 0.863433957099915 1.7136869430542 1.84908068180084 2.32286167144775 2.04015898704529 -0.830364167690277 1.08046293258667 0.859593570232391 0.915758609771729 1.41482651233673 1.49087083339691 1.44792914390564 1.55336332321167 1.49389719963074 1.48450195789337 1.47724807262421 1.42831170558929 1.4462571144104 1.40586841106415 1.56202340126038 1.87156283855438 1.974529504776 2.13477039337158 2.2957775592804 2.67992281913757 5.16756439208984 22.053617477417 26.2062587738037 41.2977256774902 14.7311906814575 -0.887449502944946 -0.895671904087067 3.98757982254028 21.9536838531494 28.0415153503418 45.5069351196289 29.6254177093506 20.2524585723877 6.55611324310303 -2.19091272354126 -1.64157521724701 -1.15876722335815 -0.865179181098938 -1.3655492067337 0.515582919120789 1.18224537372589 1.28077685832977 1.08499348163605 1.12728571891785 0.653044641017914 1.08090949058533 1.14183032512665 1.65220081806183 2.40528059005737 2.73170828819275 2.87529420852661 2.98108196258545 3.22152972221375 3.3126974105835 3.47323489189148 3.98487830162048 4.92623138427734 8.9100170135498 14.583797454834 16.7118701934814 23.9046039581299 38.1583862304688 23.3302917480469 21.8468246459961 1.03662061691284 1.34664285182953 3.54165887832642 3.58666801452637 3.30543160438538 16.5409698486328 2.8439838886261 2.47682309150696 20.3726959228516 3.60250997543335 5.27584362030029 5.85709857940674 6.49554681777954 20.0564422607422 6.50122213363647 6.60013151168823 11.0485620498657 9.58934593200684 10.9059162139893 12.0877351760864 12.7956085205078 13.4927501678467 15.5377035140991 19.0445518493652 14.2192087173462 13.8251056671143 15.2517938613892 15.918514251709 25.5426330566406 15.1880464553833 14.2564477920532 19.833101272583 11.663293838501 16.5735130310059 13.9455499649048 7.39660167694092 5.35235929489136 18.5321102142334 12.1758155822754 12.9156827926636 12.7478609085083 13.1624031066895 13.7041053771973 15.3090381622314 12.9635162353516 11.6218862533569 9.26836585998535 7.01483583450317 19.3579082489014 11.9409084320068 23.7513561248779 3.85858297348022 3.63276481628418 3.77782511711121 8.88999271392822 2.94582343101501 2.97125887870789 1.65853977203369 2.39115023612976 2.242830991745 3.86448359489441 3.99846887588501 3.98404216766357 6.3890962600708 6.62072372436523 6.04349517822266 4.92946004867554 4.29720640182495 2.96923899650574 2.74498844146729 2.6724808216095 2.57915544509888 2.46233105659485 2.27657008171082 2.19940304756165 1.99701869487762 1.92588555812836 1.60286152362823 1.56359338760376 1.57347798347473 1.65451633930206 1.70663380622864 1.56719529628754 1.54335916042328 1.30177533626556 1.29527473449707 0.969246804714203 4.12130641937256 5.93581104278564 6.48861265182495 7.08345651626587 8.64033126831055 5.33650827407837 4.92843914031982 3.72950267791748 9.35076141357422
13.7846260070801 18.8993358612061 21.4756622314453 23.2336235046387 39.0550880432129 22.4265766143799 15.7961654663086 -1.64455354213715 -1.46858239173889 -0.703141570091248 1.99329721927643 2.22180151939392 1.95950210094452 31.6704711914062 -0.777050673961639 2.1275646686554 -0.610483109951019 0.920799255371094 0.985616981983185 1.10079383850098 1.23749983310699 1.38415467739105 1.81235802173615 1.64647483825684 1.5545027256012 1.6651017665863 1.67658662796021 1.469193816185 1.68040096759796 1.98608374595642 2.23672533035278 2.20413732528687 2.29232978820801 4.84346055984497 17.6390914916992 19.2577457427979 25.1341552734375 41.0223426818848 22.0600814819336 0.23887811601162 -1.39089369773865 12.5241785049438 13.8398447036743 26.4389572143555 24.2284336090088 5.15293121337891 28.1749744415283 28.1760101318359 6.12455415725708 -1.3488312959671 7.74426794052124 14.4323196411133 -0.986038684844971 1.02929258346558 0.448434412479401 0.903880298137665 0.490338325500488 0.896754443645477 0.944289863109589 1.07104313373566 1.12402546405792 1.65054261684418 2.07753539085388 2.46570181846619 2.81199622154236 3.04271197319031 3.13942337036133 3.29556059837341 3.15843176841736 3.51529216766357 7.28152513504028 12.1640577316284 14.0152273178101 18.2241706848145 27.6882934570312 25.7116546630859 28.5673370361328 26.5375385284424 0.997795522212982 1.34769403934479 2.22891640663147 2.68025875091553 4.84934616088867 16.4935111999512 1.86678850650787 6.01899194717407 6.03108596801758 4.09687852859497 5.97707462310791 6.27255058288574 10.7500848770142 12.8434982299805 8.98233699798584 7.11871528625488 8.46568870544434 10.1315145492554 10.9487380981445 11.6083583831787 12.0268526077271 13.7121782302856 14.0413551330566 13.8905467987061 13.5924272537231 18.199275970459 14.70703125 19.721830368042 12.5168170928955 15.4590120315552 15.8196125030518 33.7569198608398 15.4814157485962 12.5679035186768 16.8791942596436 19.1924076080322 10.5917158126831 9.62642478942871 11.6522016525269 10.9730815887451 11.239447593689 15.5922498703003 14.1523017883301 10.4071378707886 9.5409107208252 7.85829019546509 10.7338924407959 12.0411186218262 8.5418758392334 7.40356826782227 16.4377365112305 21.8082885742188 21.1949024200439 10.2339735031128 15.948938369751 2.36111044883728 20.2307300567627 1.9037778377533 1.62888824939728 2.48828315734863 3.82015514373779 3.84994959831238 5.9884934425354 5.03715372085571 5.61483955383301 4.60192632675171 3.97774291038513 2.88787174224854 2.56296682357788 2.46433854103088 2.35427737236023 2.23503232002258 2.06149864196777 1.94900000095367 1.78215420246124 1.68347060680389 1.38266849517822 1.32343196868896 1.28485858440399 1.31922006607056 1.10983550548553 1.11139440536499 1.13344979286194 0.929766654968262 0.99109011888504 -0.959456086158752 3.79318046569824 5.48817777633667 5.98762559890747 6.53676557540894 6.94325113296509 31.3647804260254 3.30137014389038 0.384952276945114 3.62379121780396 4.64199113845825
14.4858226776123 14.8581533432007 16.0248889923096 18.4717311859131 15.2861700057983 22.8101596832275 -1.81047201156616 7.30282258987427 6.1527886390686 -0.021969573572278 1.53744888305664 0.655364632606506 17.0137882232666 31.8079090118408 -0.55072683095932 29.0023765563965 -0.692558228969574 0.977725088596344 0.973179280757904 1.02979958057404 1.1372572183609 1.26985883712769 1.43719589710236 2.00610208511353 1.56970977783203 1.72080683708191 1.7282475233078 1.58963310718536 1.7770619392395 2.02365803718567 2.28022265434265 2.55256676673889 13.4539642333984 14.5734224319458 15.2832174301147 19.5712070465088 25.2534732818604 37.1197052001953 43.6978569030762 42.3231430053711 10.3536329269409 8.63115119934082 17.5794467926025 16.2618770599365 4.88499355316162 18.8335876464844 26.8757190704346 32.3837623596191 10.1003246307373 3.4338710308075 3.70121431350708 -1.17360293865204 -0.922147274017334 0.448441326618195 0.664526760578156 0.177168980240822 0.364811718463898 -1.40771222114563 0.968869626522064 1.03874886035919 1.3526064157486 1.16143214702606 2.21294283866882 2.5692400932312 2.86529970169067 2.95636081695557 3.11527919769287 2.85867381095886 3.01158499717712 5.9810733795166 10.3295259475708 13.3377256393433 14.2630548477173 20.9716300964355 17.0670146942139 18.0750141143799 18.0672225952148 32.0654029846191 11.4277877807617 0.547326683998108 2.04774212837219 2.82182478904724 6.0091347694397 27.2662715911865 2.1838059425354 3.52410864830017 7.24778032302856 4.01832914352417 5.93335103988647 7.23464679718018 6.93293952941895 12.2149934768677 10.8926982879639 7.19584274291992 8.2966890335083 10.0416164398193 10.5904178619385 10.928638458252 12.3132362365723 12.463996887207 12.3020315170288 12.1878967285156 12.4873266220093 12.4599227905273 14.5037832260132 11.8435173034668 13.0671319961548 7.90667915344238 12.8006687164307 12.1969776153564 12.9064493179321 14.9208307266235 15.5766162872314 7.80664491653442 8.87089729309082 10.3661775588989 10.6966800689697 9.81361484527588 8.01811027526855 8.26245212554932 6.8686637878418 5.57220554351807 4.91578102111816 4.27589845657349 9.0426549911499 7.28976345062256 5.88914632797241 14.1754922866821 13.7166194915771 14.3843021392822 5.44841337203979 7.43258571624756 7.30938720703125 7.05822324752808 9.40227794647217 25.1856422424316 7.26395606994629 2.26342344284058 2.32762622833252 5.58145332336426 5.03550481796265 5.23792695999146 3.45714521408081 3.70553827285767 2.80477809906006 2.38170051574707 2.27587080001831 2.18765687942505 2.05599284172058 1.87254405021667 1.75205481052399 1.60762751102448 1.48052155971527 1.2305828332901 1.15287613868713 1.07534062862396 1.08388710021973 0.852092027664185 0.759849309921265 0.636225402355194 0.711630463600159 0.666752099990845 25.1606884002686 2.22460508346558 1.79445683956146 3.11255073547363 2.76858019828796 2.58955049514771 16.4340476989746 38.9117965698242 30.9870777130127 19.8451766967773 3.60267663002014 2.73920583724976
11.9594392776489 12.2599821090698 8.85201740264893 14.2576484680176 14.6551704406738 35.2477912902832 10.1932106018066 -0.741451680660248 -0.587899267673492 -0.322944670915604 -1.36310195922852 9.80190277099609 -0.302184045314789 24.4945507049561 15.7854766845703 2.73583936691284 0.389519095420837 0.358058750629425 1.00570118427277 1.01232755184174 1.08484506607056 1.21981942653656 1.41293859481812 1.9185174703598 1.53696119785309 1.64495956897736 1.70529818534851 1.72969746589661 1.85989785194397 2.05955290794373 2.38173127174377 11.6679449081421 11.6408939361572 15.0240468978882 16.2462844848633 18.4238357543945 22.6851062774658 27.0686511993408 26.9683380126953 9.4763240814209 8.03879261016846 13.5493221282959 12.0182571411133 25.5233383178711 6.51719093322754 18.7116432189941 24.2240772247314 33.4497718811035 22.2170162200928 3.66226148605347 -1.11570274829865 24.1934185028076 -0.595042049884796 3.26501965522766 2.58086276054382 -0.0193772781640291 35.6501579284668 -1.37454032897949 -0.52755343914032 1.10735523700714 0.863524734973907 0.842142403125763 1.04119920730591 2.296555519104 2.73172569274902 2.9088659286499 2.64770436286926 2.41868305206299 4.95411491394043 8.84903621673584 10.9798412322998 15.2982158660889 16.6502685546875 13.5860528945923 14.1167974472046 12.437370300293 18.5336093902588 9.46294784545898 33.1180381774902 1.71239578723907 2.67142748832703 3.19056272506714 13.0149383544922 23.094274520874 3.95385432243347 3.91077303886414 20.2990970611572 4.43283128738403 4.63510084152222 6.50332069396973 7.31518888473511 7.61952495574951 16.676815032959 11.5544481277466 9.15271091461182 9.77212429046631 9.96721267700195 11.1406307220459 11.183575630188 11.0338459014893 10.9481916427612 11.1877546310425 10.9159851074219 11.6107730865479 9.444504737854 10.0472679138184 22.594705581665 12.7835235595703 9.29565143585205 7.12876796722412 11.4989461898804 14.3947639465332 7.34484958648682 8.1633129119873 9.63596725463867 10.4892387390137 18.6292991638184 19.0575199127197 11.0994024276733 16.071361541748 10.1372079849243 7.85740756988525 4.20753765106201 6.51812648773193 6.63551950454712 15.2182140350342 10.7851257324219 12.3135480880737 17.2652435302734 29.1063442230225 17.0107574462891 14.2965888977051 6.98066473007202 15.1627769470215 17.038257598877 1.88923931121826 22.0702533721924 11.7590303421021 3.55659580230713 3.16552138328552 3.87217092514038 3.32388687133789 3.45654273033142 2.32363843917847 2.22932052612305 2.11418867111206 2.03971028327942 1.9108772277832 1.73259520530701 1.59233593940735 1.4356427192688 1.3149938583374 1.08605790138245 0.989829421043396 0.90777987241745 0.892674088478088 0.648901760578156 0.552051901817322 0.511698246002197 0.507126808166504 0.411503285169601 11.8245401382446 33.7355270385742 13.8520822525024 2.31800270080566 2.61613297462463 13.6851577758789 3.60646915435791 8.00547027587891 14.1248054504395 2.92103862762451 3.56321907043457 1.25622582435608 0.66845291852951
9.82899188995361 7.37941551208496 12.8323564529419 6.31710290908813 19.1734275817871 24.1835594177246 23.222770690918 27.1135406494141 25.88694190979 -0.163246378302574 5.65599393844604 -0.0271678753197193 13.4571943283081 5.61012983322144 28.75657081604 11.7167177200317 0.335149556398392 0.610524713993073 1.88763201236725 1.04454588890076 1.09143388271332 1.22058963775635 1.56688559055328 1.42828035354614 1.47427356243134 1.59708750247955 1.74875473976135 1.85871350765228 1.90179264545441 2.18799996376038 10.3167381286621 10.1320648193359 12.9537658691406 13.3916807174683 14.476619720459 17.8160991668701 20.0563259124756 20.0983486175537 7.49695062637329 11.1898279190063 11.4449348449707 10.0793523788452 13.9338064193726 16.7402763366699 14.1174230575562 16.7036380767822 18.5356140136719 21.6753330230713 24.3003368377686 39.5722770690918 13.5801734924316 3.41280508041382 -0.0463141687214375 5.79027509689331 8.9497709274292 20.1162357330322 39.3595352172852 -1.16638910770416 0.493852198123932 0.695699095726013 0.71430367231369 0.828989028930664 1.03501546382904 1.15708112716675 2.21660685539246 2.086745262146 2.22124028205872 4.10938453674316 7.63450765609741 6.47783613204956 12.7232675552368 10.0335493087769 9.96871185302734 10.9685297012329 9.56265544891357 12.9979219436646 6.71014642715454 19.3622646331787 0.502348899841309 1.81587779521942 2.26448345184326 7.50703716278076 10.8288974761963 10.5976839065552 3.76238226890564 5.45429372787476 8.08248615264893 13.1067895889282 5.51632452011108 6.43228244781494 7.16818809509277 8.6797571182251 8.00525569915771 8.61880874633789 9.05536556243896 9.18828773498535 10.1700325012207 10.1344022750854 10.0018424987793 9.9270191192627 10.1754331588745 9.77706432342529 9.34707069396973 7.94822692871094 8.03980350494385 12.1843481063843 10.8047666549683 15.1330757141113 19.6512908935547 10.1740055084229 6.23271512985229 5.4422345161438 6.64648008346558 7.82031631469727 9.03889465332031 11.0571966171265 12.0008115768433 11.7996044158936 13.4613103866577 11.2373266220093 10.8092088699341 22.4023189544678 6.92074584960938 10.3628835678101 10.8590745925903 17.9333381652832 15.6599578857422 12.1040534973145 17.2471714019775 16.5377025604248 13.5222845077515 22.64967918396 14.1427011489868 15.6131105422974 26.0293292999268 17.7985134124756 19.5161514282227 15.7795667648315 2.90909147262573 2.1707615852356 1.89373779296875 2.33942866325378 2.15862941741943 1.91292941570282 1.98977708816528 1.8975476026535 1.77744209766388 1.62744832038879 1.48103129863739 1.29272735118866 1.12550830841064 0.891854166984558 0.778884053230286 0.693702042102814 0.684922397136688 0.509632885456085 0.474220752716064 0.461973011493683 0.376080542802811 0.290874302387238 6.81021928787231 16.4878005981445 25.4646892547607 36.0331993103027 22.1027812957764 5.86176013946533 6.10800266265869 1.77277112007141 0.0461418889462948 2.09965538978577 0.943818688392639 0.306089401245117 0.395151197910309 -0.425790160894394
17.7159042358398 10.3596935272217 26.8733463287354 22.9794464111328 19.7629489898682 27.8233699798584 27.2646312713623 21.1694068908691 34.0748100280762 0.772950768470764 -0.821117162704468 -0.974605977535248 8.52892303466797 14.1858730316162 5.75483465194702 3.83891606330872 8.34582901000977 -0.479065626859665 -0.459088534116745 1.61439311504364 1.14541625976562 1.29875683784485 1.35887837409973 1.37769985198975 1.45668745040894 1.59784078598022 1.78841292858124 1.88525331020355 2.17383170127869 9.35805892944336 9.04818153381348 11.5483379364014 11.6008310317993 13.5837116241455 14.7031660079956 15.7936449050903 16.1196765899658 7.13663768768311 10.4070453643799 8.96154975891113 5.1887469291687 6.43503618240356 10.4775695800781 11.4645204544067 12.6325674057007 12.576847076416 14.8621644973755 22.5208473205566 23.2256164550781 9.75159454345703 7.4060001373291 17.2204303741455 3.97834491729736 7.49658727645874 17.2407627105713 6.09306907653809 -0.00712087005376816 0.222346186637878 0.337636411190033 0.496161639690399 0.713586151599884 0.832410514354706 0.919199645519257 0.87538355588913 1.24334418773651 1.67459523677826 3.45035791397095 6.01969385147095 18.068244934082 10.8668985366821 8.55759525299072 8.27967548370361 6.77449512481689 7.39177274703979 0.488769292831421 0.527175843715668 1.09401404857635 -0.150555416941643 -0.01235631108284 0.768037915229797 4.56233024597168 5.58347797393799 3.90987253189087 2.77075719833374 4.0758318901062 4.01993894577026 4.1617579460144 12.5037994384766 6.16049194335938 5.55699634552002 7.18678092956543 7.79096508026123 8.19867610931396 8.53534889221191 8.36392498016357 8.85747146606445 9.22132205963135 9.13529014587402 9.0697021484375 9.2988805770874 8.86383819580078 8.49874591827393 7.02611923217773 6.94851064682007 7.72362422943115 8.66457843780518 9.17218589782715 12.5261182785034 8.53040790557861 16.6348133087158 21.9006671905518 20.053295135498 19.506986618042 11.6474390029907 7.68144607543945 7.94176530838013 8.13000011444092 13.3763036727905 19.7489852905273 17.2411308288574 13.2338094711304 19.9707546234131 11.5400199890137 10.3516569137573 9.71553421020508 10.5399770736694 10.6128435134888 12.0261383056641 10.7234582901001 9.51438426971436 10.8209228515625 9.84517860412598 11.8720922470093 13.9240159988403 10.9836416244507 10.2237777709961 6.2625207901001 2.22402095794678 1.44563722610474 0.721442699432373 0.0464141331613064 0.220558881759644 1.7463481426239 1.7335512638092 1.59698760509491 1.64102804660797 1.49522542953491 1.36747682094574 1.19694781303406 0.997973144054413 0.726756393909454 0.570503175258636 0.455197423696518 0.420550227165222 0.386016070842743 0.345111340284348 0.349502414464951 0.20135323703289 0.19013811647892 4.75275039672852 10.2850770950317 12.134183883667 17.4005699157715 8.97334575653076 9.42160511016846 1.74601149559021 -0.613979816436768 0.292546331882477 0.793401598930359 -0.307392001152039 -0.350897639989853 -0.0310065373778343 -0.567775964736938 -0.664799630641937
8.48067855834961 14.465726852417 15.6722869873047 13.5741682052612 17.9919281005859 19.591609954834 15.5356979370117 20.2320861816406 19.9025707244873 25.4509410858154 28.6994361877441 4.25050449371338 7.857994556427 2.74089765548706 8.15552139282227 4.47403812408447 28.7113628387451 29.2246990203857 2.75208950042725 3.07935786247253 1.29117751121521 1.32126200199127 1.28955471515656 1.39562702178955 1.50969970226288 1.61345243453979 1.75805008411407 3.60748648643494 8.58310031890869 8.2327184677124 10.4443826675415 4.25365495681763 5.06636238098145 12.0637788772583 13.0447874069214 13.3424797058105 6.58457803726196 9.54825305938721 8.46453380584717 18.1173858642578 15.7364387512207 9.2709789276123 9.55416870117188 10.479380607605 9.72137069702148 11.1344299316406 15.2187128067017 15.9891805648804 19.7971935272217 19.3331050872803 9.52786731719971 3.01439309120178 5.53785753250122 14.0724515914917 41.5504875183105 42.5574188232422 -0.796622216701508 2.36277508735657 0.374333262443542 0.50654011964798 0.697580456733704 0.815983593463898 0.844855904579163 1.94773268699646 1.20444524288177 2.75138187408447 5.72038459777832 8.44570064544678 9.54777431488037 7.46349048614502 6.98845243453979 5.4992733001709 6.75764799118042 0.382197380065918 0.147453084588051 0.263956010341644 3.31812310218811 -0.590574562549591 0.229877650737762 0.372116804122925 3.14049506187439 3.20886397361755 24.8797550201416 2.60547542572021 3.67919301986694 3.49328231811523 3.85429048538208 3.68837785720825 4.31651973724365 5.68223524093628 6.36050844192505 6.97771835327148 6.91299247741699 6.78981971740723 7.2305326461792 7.19088506698608 8.42520713806152 8.36461067199707 8.55759811401367 8.10923480987549 7.73608922958374 6.72925996780396 6.44089126586914 6.66539192199707 7.33053398132324 8.00476741790771 8.28397464752197 7.27849388122559 11.0812892913818 11.4420585632324 9.20963096618652 8.49640083312988 8.32427406311035 20.2820091247559 16.1856517791748 6.93898773193359 4.83455991744995 5.08916473388672 7.51246118545532 10.6052541732788 9.49628639221191 11.9579696655273 11.5121803283691 8.1610860824585 8.52281284332275 7.36375284194946 8.63915061950684 8.08432483673096 7.74617671966553 7.0170111656189 8.04923439025879 9.61724281311035 9.1182975769043 8.60823631286621 7.7764778137207 3.26231789588928 2.12938404083252 2.54596590995789 0.55380767583847 -0.0916253104805946 -0.00112575734965503 -0.0322686992585659 0.0748561695218086 1.35183751583099 1.25657904148102 1.23633742332458 1.22739899158478 1.05876910686493 0.885554373264313 0.620846688747406 0.512141585350037 0.395026087760925 0.280218094587326 0.224356651306152 0.202319860458374 0.214950159192085 0.0961173549294472 3.39590120315552 3.45474433898926 7.45086050033569 8.75870132446289 4.29996252059937 5.03881597518921 4.96124935150146 1.69728207588196 -0.998505234718323 0.0953061208128929 -1.27794206142426 -1.50126051902771 -1.90477406978607 -0.997964143753052 -1.08527052402496 -1.04610550403595 -1.25814974308014
11.8619747161865 12.8121852874756 10.2413549423218 13.6191635131836 14.9196500778198 11.8616647720337 14.3099212646484 11.6249446868896 14.6198453903198 15.8405866622925 4.05684518814087 5.39952182769775 1.27064049243927 3.13212871551514 2.28500699996948 14.8781967163086 15.8215475082397 1.76159918308258 1.83354365825653 1.27684354782104 1.32910764217377 1.21721887588501 1.24077987670898 1.40725243091583 1.50302827358246 1.62083172798157 3.46020603179932 2.8979549407959 7.50607204437256 9.52434921264648 40.3975868225098 2.96029376983643 4.55175399780273 10.7565174102783 7.05501747131348 6.07067108154297 8.66288471221924 7.8039402961731 11.3807344436646 10.5420913696289 8.50547122955322 8.49801254272461 7.89501523971558 8.53780460357666 9.26406669616699 11.5116338729858 11.8360109329224 10.0162963867188 11.620867729187 6.53018856048584 2.44331383705139 10.5555953979492 11.5892562866211 25.0783138275146 28.2764530181885 37.8659362792969 7.48241090774536 5.17205715179443 2.53784871101379 0.64306628704071 0.721746623516083 0.75374972820282 0.659589231014252 1.15513026714325 2.54189372062683 5.11270761489868 5.84505033493042 8.44357967376709 6.79829931259155 6.25648641586304 4.8342490196228 5.6637978553772 9.02173805236816 -0.016588170081377 -0.0776901692152023 -0.274920016527176 3.20269751548767 -0.697134494781494 2.08130884170532 0.280064254999161 0.464556634426117 1.1582578420639 2.01016783714294 2.60652995109558 3.29275608062744 3.39766073226929 3.30403280258179 4.31510734558105 4.77247333526611 4.36563968658447 4.90800762176514 5.61352443695068 6.29521036148071 6.92900466918945 6.60665369033813 6.82037305831909 7.74671840667725 7.92577219009399 7.46695804595947 7.13545036315918 5.97530698776245 6.04603910446167 6.35365438461304 7.01194286346436 7.16293573379517 6.06405353546143 6.15156745910645 7.503493309021 8.63213348388672 7.67771005630493 7.56256008148193 7.87640857696533 11.3788137435913 7.86033296585083 11.7110662460327 21.4179801940918 5.09062480926514 5.70456457138062 8.58281421661377 11.2635850906372 7.93238306045532 6.15062141418457 8.1630973815918 7.75484228134155 3.33159351348877 2.78753519058228 2.14132642745972 3.97825121879578 6.71863508224487 14.2985820770264 5.1318244934082 6.2333927154541 6.2743968963623 6.07229137420654 14.3943138122559 15.613844871521 10.8356370925903 15.0719013214111 14.5330572128296 12.203311920166 -0.0645509585738182 -0.120399281382561 -0.120465159416199 1.1649374961853 1.06451618671417 0.924074232578278 0.791478335857391 0.703636765480042 0.552460491657257 0.450419425964355 0.331069141626358 0.227407768368721 0.159352988004684 0.0989835634827614 0.0965298414230347 0.019063426181674 2.62861585617065 5.30698776245117 6.41795969009399 6.79099798202515 18.2258529663086 2.28994655609131 2.98129367828369 20.4936084747314 -1.47056865692139 -0.323111355304718 -2.0975489616394 -2.10231447219849 -2.57488822937012 -2.12264060974121 -1.61082422733307 -1.48847758769989 -1.71759450435638 -1.66075050830841
8.37089061737061 9.89671230316162 10.8102788925171 11.8618898391724 9.45872402191162 10.8602485656738 7.95142602920532 10.5200319290161 11.63942527771 3.9409716129303 4.38760328292847 1.00199711322784 1.81767451763153 1.0325471162796 9.38005924224854 9.75807094573975 1.00893414020538 1.12872099876404 1.21492207050323 1.27156782150269 1.24272692203522 1.2199432849884 1.27741765975952 1.40967702865601 1.54123544692993 3.30047035217285 13.2263879776001 3.39026832580566 4.28559827804565 2.76970386505127 1.37155902385712 -0.157107636332512 1.70469903945923 2.39468717575073 5.65404176712036 7.94498920440674 7.16931438446045 8.22089195251465 7.98939990997314 8.0019998550415 7.84325647354126 7.16625022888184 7.53970003128052 8.90489101409912 9.70261001586914 9.77932643890381 6.51353597640991 7.59650611877441 4.89104032516479 3.25345897674561 9.0409107208252 11.9134578704834 17.5388088226318 20.16455078125 22.6793746948242 6.30852842330933 5.03203105926514 2.30513215065002 0.616711437702179 0.691232264041901 0.70924311876297 0.568637371063232 1.92095255851746 2.35772180557251 4.80616044998169 5.35400342941284 7.40861225128174 5.96346473693848 4.97712802886963 4.31170082092285 2.42296314239502 7.05128860473633 6.02482509613037 1.3985983133316 13.1227293014526 13.256721496582 16.6212177276611 -0.379214614629745 0.0453606769442558 -0.00244487449526787 0.760002255439758 3.9844970703125 2.19675445556641 2.33013582229614 3.21956729888916 3.08856654167175 3.81107234954834 4.03664970397949 5.75629472732544 4.54947948455811 4.50012540817261 5.24887466430664 5.2354736328125 5.85861730575562 5.3234167098999 5.86865711212158 7.44456148147583 6.91817283630371 6.76228809356689 5.65666580200195 5.59006118774414 5.74890661239624 6.45431423187256 6.79386186599731 5.80816793441772 5.27661609649658 5.36002683639526 6.41781234741211 6.96907424926758 7.21502447128296 7.46794557571411 8.29706573486328 7.43444108963013 6.90881824493408 11.1698427200317 13.2348928451538 12.9740800857544 8.38121032714844 7.1761646270752 6.26352500915527 12.3688344955444 6.09422397613525 5.52411365509033 3.16094565391541 2.6294960975647 2.01917409896851 1.3922290802002 1.31951153278351 5.01604413986206 7.17144680023193 13.9814958572388 5.29866552352905 3.15838146209717 2.66171431541443 6.71268653869629 7.90486907958984 12.587119102478 10.0064754486084 7.26560544967651 19.113597869873 13.0298748016357 -0.406319350004196 -0.202786058187485 -0.650406420230865 0.740984380245209 0.662779033184052 0.571023166179657 0.444167286157608 0.352921694517136 0.241883233189583 0.14876426756382 0.0876046195626259 0.0450467094779015 0.0193935260176659 -0.0563681684434414 2.11088085174561 4.36027526855469 5.15795135498047 5.68810272216797 8.55122756958008 1.51803588867188 2.565913438797 12.9462070465088 39.8789100646973 6.17441654205322 -2.27986121177673 -2.93769717216492 -3.30723214149475 -2.25112581253052 -3.09875845909119 -1.93203437328339 -1.87594199180603 -1.80699217319489 -2.45063090324402
9.07443618774414 9.11403179168701 6.90162372589111 7.39656782150269 8.42798519134521 5.83309412002563 7.81418514251709 8.85985946655273 3.60283184051514 1.6287933588028 1.11841440200806 1.49197912216187 0.706209242343903 6.61817312240601 6.87531566619873 0.889286756515503 0.993173837661743 1.07867765426636 1.21760427951813 1.33870589733124 1.26676785945892 1.24359393119812 1.35579073429108 1.4485102891922 0.41934335231781 5.99413347244263 1.5533252954483 9.29837322235107 7.32797431945801 19.9365234375 4.69515943527222 0.272276997566223 1.45815122127533 1.68104863166809 7.35330390930176 6.675048828125 6.607985496521 6.33796691894531 7.34647369384766 7.22664833068848 6.66133260726929 6.87701940536499 7.9097466468811 7.93420314788818 6.83663272857666 5.72212743759155 6.17731475830078 3.82738399505615 2.7268590927124 7.8838095664978 10.1968107223511 13.4421081542969 15.5262727737427 15.8444404602051 4.79541349411011 4.55991458892822 5.63548755645752 4.38334941864014 1.56877827644348 0.640532851219177 0.554554164409637 2.04327392578125 4.23999118804932 4.43534231185913 4.97599077224731 6.82071018218994 5.40349197387695 0.88753741979599 3.83450031280518 1.4951456785202 5.18098163604736 12.4216823577881 11.6223011016846 5.33698511123657 4.3217716217041 13.7355365753174 5.53868246078491 9.07307815551758 14.2498741149902 1.01534914970398 1.10855078697205 1.62866187095642 2.71988344192505 3.02398157119751 8.08000373840332 3.39442229270935 3.66158485412598 5.17863798141479 11.3543033599854 4.40244102478027 4.78616428375244 4.52570486068726 4.20078897476196 4.30620574951172 4.19211292266846 4.85097789764404 6.55970621109009 6.13711500167847 4.95378255844116 4.96358966827393 4.99601793289185 5.93310356140137 6.24428033828735 5.36195707321167 5.15392923355103 5.07637596130371 5.85646343231201 6.52064657211304 6.74000883102417 7.11964988708496 7.37319564819336 7.03823614120483 6.49802541732788 8.26744174957275 8.90107917785645 8.72315311431885 6.07680892944336 5.72219610214233 5.60158634185791 6.10784387588501 9.72412300109863 4.30562734603882 19.3802433013916 3.94841313362122 3.6705756187439 1.1297652721405 1.01183104515076 1.5582001209259 2.73704385757446 6.18039035797119 5.12061500549316 11.4429655075073 20.5346202850342 3.86132025718689 4.88989114761353 7.45950317382812 8.65149593353271 5.27208518981934 12.1913471221924 11.7886362075806 -0.48054313659668 4.27499198913574 -0.432203114032745 -0.649060547351837 -0.706023395061493 0.490737527608871 0.367128968238831 0.2569240629673 0.149343878030777 0.059963371604681 -0.0192364826798439 -0.0316635780036449 -0.0547086149454117 -0.0725253075361252 1.68009221553802 3.58695030212402 4.37567949295044 4.68289184570312 4.95949220657349 27.1514377593994 17.1480464935303 1.62183725833893 23.1762466430664 24.4933395385742 20.611421585083 9.0679817199707 -3.33812546730042 -3.13030028343201 -3.51907801628113 -3.57365655899048 -2.16220307350159 -2.62688684463501 -3.13450598716736 -2.86179161071777
8.70883750915527 6.25906896591187 6.23315763473511 3.52953290939331 4.85889053344727 5.69620704650879 6.83261299133301 3.0116548538208 0.777713119983673 0.991324305534363 0.700881600379944 4.61964988708496 5.32376003265381 5.35064888000488 0.794888734817505 0.880460381507874 0.978481709957123 1.08818256855011 1.27185070514679 1.2569168806076 1.27309691905975 1.37896382808685 1.45173418521881 0.0671736672520638 2.53381586074829 3.50312232971191 3.84810709953308 3.0637845993042 13.2622346878052 15.940393447876 25.5849590301514 0.742420256137848 0.337438017129898 2.08285212516785 6.22549200057983 5.63458013534546 5.44156742095947 6.77785301208496 6.60752010345459 6.13404321670532 6.30421018600464 7.15171813964844 7.18336343765259 6.29292440414429 5.12361335754395 5.07455396652222 1.71050953865051 2.45152235031128 6.97042036056519 9.85895442962646 11.4541864395142 12.5812301635742 12.1065654754639 3.74828004837036 3.65584540367126 3.78253817558289 4.13651752471924 3.98693871498108 2.98564529418945 -1.11008906364441 -1.24329423904419 4.02154350280762 4.21916007995605 4.58564233779907 6.28418016433716 1.11427056789398 7.04338073730469 1.04190051555634 5.39720296859741 4.78847312927246 5.94238138198853 8.88393783569336 3.56274557113647 0.753735184669495 8.53175926208496 1.60780203342438 3.29497051239014 3.93740558624268 1.03561782836914 1.99515604972839 9.22144317626953 2.49455595016479 2.51782703399658 2.26990652084351 8.36751556396484 3.43502736091614 3.19268751144409 4.09252738952637 3.74839401245117 4.11325931549072 3.63552165031433 3.73337411880493 3.42268705368042 4.09700298309326 3.80268669128418 4.29411458969116 4.83011436462402 4.56195116043091 4.39423370361328 4.80254793167114 5.43965244293213 5.70164632797241 4.95737838745117 4.89464902877808 4.94223165512085 5.52544260025024 6.06347990036011 6.23465919494629 6.59709692001343 6.55095243453979 6.559410572052 6.08680534362793 6.0939507484436 5.88032531738281 6.17722463607788 5.71039438247681 5.26557111740112 5.14419317245483 5.65497016906738 4.44422483444214 4.29871511459351 11.6773509979248 9.81122875213623 2.70907783508301 4.15337038040161 0.295828104019165 5.94763565063477 0.555594801902771 0.586167216300964 4.78373622894287 4.61844396591187 9.09426021575928 17.4027137756348 3.77464556694031 2.18757367134094 2.11851668357849 0.72183084487915 3.81673622131348 3.83713054656982 -0.637327313423157 -0.438888430595398 3.83572149276733 0.394574195146561 1.39612889289856 -0.985852420330048 -1.0029444694519 0.17583304643631 0.073073111474514 -0.0151487644761801 -0.0932296887040138 -0.12903393805027 -0.143948614597321 -0.116398975253105 1.35959386825562 3.00528836250305 3.71277546882629 3.95404863357544 3.74020028114319 14.4650039672852 1.94691359996796 1.55478847026825 11.4809856414795 6.11629104614258 10.6982755661011 16.3174095153809 12.2156620025635 8.31837272644043 4.5211353302002 13.2698926925659 -2.82925796508789 3.34997963905334 23.1048221588135 18.0157070159912 23.8382911682129
9.88347339630127 5.77578735351562 3.11800599098206 3.97838377952576 4.29498338699341 1.54678320884705 2.25514245033264 0.37699094414711 0.737975478172302 0.498349726200104 3.81094241142273 3.93028736114502 0.704145729541779 0.770578145980835 0.815450072288513 0.889754712581635 0.973557114601135 1.14607954025269 1.75106108188629 1.56568956375122 1.34437799453735 -1.003378033638 2.83813261985779 1.99028360843658 1.37589168548584 2.86126732826233 7.27287912368774 5.6388521194458 10.7661466598511 9.79809761047363 15.1335725784302 18.4924640655518 1.57622098922729 1.75722217559814 2.42076110839844 5.1240406036377 6.34697866439819 6.1153736114502 5.66758394241333 5.77121686935425 6.47379922866821 6.52667808532715 5.78853225708008 4.66344356536865 3.04157328605652 1.55890250205994 2.32278776168823 6.38682126998901 8.46539974212646 9.78635501861572 8.93824481964111 9.82059383392334 3.03221750259399 3.01095676422119 2.71091842651367 3.0757269859314 3.1048903465271 2.76204466819763 46.1348686218262 27.1609401702881 0.765889406204224 1.56780326366425 4.25426054000854 5.79501342773438 2.23848986625671 0.462744265794754 -0.71486222743988 4.65673208236694 4.61060094833374 31.299488067627 7.49703931808472 2.71428728103638 10.9958419799805 1.66204810142517 -0.70121967792511 0.0385974533855915 2.77779674530029 0.747280657291412 1.09190046787262 1.3495044708252 2.18967843055725 2.46543097496033 13.0645990371704 3.19158911705017 2.81766629219055 2.85975694656372 3.07156729698181 2.75683999061584 3.09691548347473 3.44654488563538 3.62430286407471 3.02221918106079 4.02444934844971 8.03357791900635 2.7391083240509 3.23992109298706 3.40617156028748 4.03842973709106 4.61944723129272 4.87253379821777 5.22468852996826 4.4167537689209 4.54248285293579 4.62392234802246 5.25293636322021 5.75214099884033 5.90864133834839 6.18854856491089 5.92033767700195 5.49075031280518 5.22517681121826 4.92670965194702 4.85385513305664 5.27917194366455 5.15706634521484 4.91336107254028 5.03914213180542 5.04658174514771 15.9849157333374 3.76582717895508 5.66929626464844 4.76651096343994 1.84701502323151 12.1043186187744 1.51609969139099 2.81144142150879 8.78046798706055 12.423565864563 0.63246476650238 2.32167673110962 2.71566081047058 3.20843839645386 9.93595218658447 13.3209009170532 1.52366495132446 -0.331809133291245 -0.383436024188995 1.38766992092133 1.12715816497803 -0.59238600730896 4.6257586479187 4.3313364982605 -0.83548241853714 2.55445122718811 -1.38665807247162 -1.15261769294739 -1.40416264533997 -0.0854092240333557 -0.15209873020649 -0.199774771928787 -0.208655416965485 -0.192187294363976 1.44275379180908 2.56768989562988 3.21337366104126 3.36101460456848 2.80822825431824 9.65549945831299 23.8405857086182 0.663813889026642 7.80948066711426 8.2812671661377 10.5138750076294 7.7557578086853 11.8414344787598 12.0254182815552 5.46333742141724 -3.65655994415283 9.33204936981201 3.17675399780273 19.1780376434326 10.9226522445679 10.6213941574097 -2.92117691040039
4.55353975296021 4.77886056900024 3.77908229827881 3.90073442459106 1.10534799098969 1.13327503204346 0.104446530342102 0.303584039211273 0.422085672616959 3.12014317512512 3.23661398887634 0.647010564804077 0.72026139497757 0.785417497158051 0.837948620319366 0.901546955108643 1.02277994155884 1.27202832698822 1.70881104469299 1.44898891448975 11.9030380249023 21.0407028198242 1.03504776954651 2.3913722038269 2.16194939613342 1.75343501567841 3.4012508392334 6.69804239273071 6.62401628494263 7.28985214233398 5.10212659835815 8.3249568939209 0.921638607978821 1.19352757930756 0.863921165466309 5.97298526763916 5.7637300491333 5.30599355697632 5.35915565490723 5.93791055679321 5.96131229400635 5.36003160476685 4.26401519775391 2.82973313331604 1.53931140899658 2.18732261657715 5.86639451980591 7.52006435394287 8.62862300872803 7.71237277984619 2.50549840927124 2.48150968551636 2.08293485641479 2.13117957115173 2.41218614578247 2.27891182899475 2.25916051864624 28.2937812805176 30.8977642059326 20.6107292175293 1.1628897190094 1.9788646697998 1.35871553421021 5.01830863952637 -0.345203250646591 5.07908821105957 0.656497180461884 10.1606369018555 4.53735685348511 8.65520858764648 4.01012372970581 0.755946278572083 -0.231754273176193 11.4844360351562 2.92461967468262 -0.0432160831987858 0.659175753593445 0.921798825263977 10.5285081863403 1.99101126194 1.94348931312561 4.65407657623291 2.55736947059631 7.92738723754883 2.89632344245911 2.84056901931763 2.6865119934082 3.06591057777405 2.63137412071228 3.10299777984619 2.90945029258728 2.73536014556885 2.75117158889771 14.4500331878662 2.67575454711914 2.81858086585999 2.74204730987549 4.33415794372559 4.5658860206604 4.07209205627441 4.15469694137573 4.3386754989624 4.38192176818848 4.88991785049438 5.31697607040405 5.54645824432373 5.87745046615601 5.60034275054932 5.14892768859863 4.28106212615967 4.36239147186279 4.59693002700806 4.88055849075317 4.75827217102051 4.38906621932983 4.3117790222168 4.7272572517395 8.53440093994141 3.50540733337402 3.72760558128357 2.65981030464172 1.69886112213135 5.09263229370117 9.31158542633057 1.03865456581116 0.326203614473343 0.603624999523163 2.0493700504303 1.78309786319733 1.59274566173553 1.09164261817932 0.254339724779129 0.96486485004425 5.47149419784546 -0.722925186157227 -0.834222376346588 -0.133711770176888 3.00923824310303 -0.878319621086121 2.34214019775391 0.985970258712769 -1.03076410293579 -1.3600310087204 1.38003039360046 -1.53354525566101 -1.59766256809235 -1.70397508144379 -1.84420394897461 -0.255819708108902 -0.251200705766678 -0.230098068714142 1.3329690694809 2.20960426330566 2.80936408042908 2.92134785652161 3.25516819953918 7.09606218338013 12.3131275177002 14.0956354141235 6.17744636535645 5.98200273513794 12.485613822937 5.1802773475647 2.71971845626831 2.27680945396423 -3.20142793655396 19.9116382598877 15.2702074050903 1.67300999164581 9.76447486877441 6.8942928314209 7.72228240966797 31.2091503143311 16.9457607269287
15.3041925430298 7.29225635528564 4.04950284957886 4.13770437240601 3.11651492118835 -0.148344069719315 -0.115570813417435 0.20053106546402 2.45215129852295 2.68156909942627 0.562486886978149 0.656286954879761 0.733178973197937 0.800979912281036 0.863691747188568 0.943977296352386 1.11970007419586 1.44049096107483 1.31931626796722 25.080904006958 23.7892303466797 14.7601299285889 2.12536597251892 1.47719442844391 2.29611229896545 2.80548858642578 3.05066585540771 5.26708650588989 4.3772234916687 1.86887311935425 1.4865335226059 4.44305562973022 0.698760628700256 9.87600135803223 1.2400153875351 1.91016590595245 5.02205896377563 5.0253324508667 5.50220394134521 5.52851438522339 5.01122426986694 3.95219039916992 2.67728161811829 1.51631450653076 2.11001372337341 5.45350694656372 6.73636388778687 7.71935987472534 6.76067352294922 2.24188041687012 2.16468811035156 1.85015189647675 1.90155243873596 1.98520350456238 1.78341090679169 1.78464365005493 19.9709892272949 20.7839336395264 31.2005882263184 39.0307884216309 11.3446636199951 14.3351440429688 0.281751066446304 14.3065004348755 5.29760980606079 -0.0366378352046013 2.63143634796143 18.2694549560547 16.1057071685791 2.17491483688354 3.03557538986206 8.04916763305664 3.86202073097229 0.00345997768454254 -0.32985445857048 0.00168468488845974 0.559332132339478 0.542972028255463 1.33250999450684 1.2799733877182 2.04801249504089 2.07106161117554 2.5562629699707 5.50152635574341 8.66503429412842 2.43998908996582 2.60806727409363 2.38558268547058 2.63125085830688 2.07027387619019 2.39239120483398 2.25837969779968 1.58281540870667 1.79002642631531 2.56909823417664 2.52388095855713 3.01388192176819 4.26383638381958 3.89344167709351 3.99164223670959 4.15501022338867 4.23599338531494 4.69335746765137 5.04240131378174 5.12601184844971 5.46310663223267 5.19776296615601 4.79277324676514 4.11123037338257 4.1893949508667 4.29993057250977 4.39607620239258 4.53678512573242 4.37280225753784 4.06462526321411 4.39007520675659 3.6529426574707 3.49906206130981 2.45327734947205 2.39911127090454 6.15699338912964 2.22951316833496 4.45203876495361 4.71261358261108 2.88596987724304 -0.594218313694 0.395504683256149 1.52903914451599 1.15698111057281 0.753870904445648 0.147661745548248 -0.535011768341064 -0.357211112976074 8.30482959747314 10.6756830215454 0.21234692633152 0.815007746219635 2.48270320892334 0.0452487133443356 0.849775314331055 1.38293814659119 4.04640769958496 0.897928833961487 4.67420625686646 4.91202926635742 10.4330244064331 -1.85678148269653 -1.5768723487854 -1.88546705245972 -0.292423605918884 1.23592853546143 2.07915377616882 2.43425250053406 2.54479265213013 5.38781356811523 5.54529523849487 8.15515232086182 25.8394336700439 3.08992743492126 5.66756534576416 10.8880863189697 31.9912910461426 17.0811100006104 5.88824129104614 3.66356468200684 8.20127201080322 5.68788528442383 1.03730142116547 8.03005218505859 3.38573169708252 4.66075277328491 1.2183119058609 3.01674389839172 3.59749913215637
12.3986730575562 10.5217781066895 7.07367944717407 5.23720026016235 7.45308685302734 0.818738043308258 -0.204032197594643 1.18345928192139 1.87063479423523 0.457680225372314 0.562052071094513 0.645012319087982 0.723062217235565 0.802822530269623 0.87930029630661 0.998512089252472 1.17018890380859 1.35330283641815 16.3708324432373 18.1956214904785 9.20210361480713 23.3638648986816 2.93898224830627 6.69365692138672 2.541907787323 3.52169489860535 3.13064622879028 2.80320858955383 1.44907689094543 2.07410264015198 0.784926414489746 0.566245436668396 1.20483601093292 3.04175543785095 0.890028417110443 1.66426479816437 4.84816026687622 5.11707067489624 5.10416507720947 4.6573805809021 3.64151811599731 2.48904204368591 1.45632314682007 1.96470022201538 5.06225061416626 6.09790897369385 6.94786405563354 5.98698949813843 2.0164897441864 1.94537019729614 1.65587973594666 1.59917986392975 1.44104087352753 1.45139455795288 1.4603796005249 15.3203458786011 16.0349674224854 18.4011650085449 22.6948986053467 34.4151916503906 19.1465339660645 5.22517251968384 9.30191993713379 1.86539041996002 -1.12958180904388 -0.562341570854187 8.13942432403564 5.46293592453003 25.6638641357422 37.6187400817871 3.78537344932556 2.54691696166992 -0.332767844200134 -0.654038369655609 -0.295520395040512 -0.164541274309158 0.499598860740662 0.787800133228302 1.11593341827393 1.62126123905182 7.75189876556396 2.28288292884827 2.37723183631897 2.31524276733398 2.5657012462616 2.52831721305847 2.1904411315918 1.72433757781982 1.95381331443787 2.05438899993896 1.81175398826599 4.44804048538208 1.12228155136108 2.05737376213074 1.16697204113007 2.72319149971008 3.2487096786499 3.65217757225037 3.94647431373596 4.0227518081665 4.29224061965942 5.78699731826782 4.91639804840088 4.98695945739746 5.09743022918701 4.85626983642578 4.4145040512085 3.68227005004883 3.97985458374023 4.05657386779785 4.11372756958008 3.79910016059875 4.11667728424072 4.15416049957275 4.0808424949646 3.20720744132996 2.95080399513245 1.76816701889038 1.37366998195648 2.11250066757202 0.820613205432892 -0.169087499380112 0.392476499080658 0.00552209280431271 -0.722122013568878 -0.194193750619888 1.0330775976181 0.553625106811523 0.247378513216972 -0.00292344740591943 5.42384147644043 -0.524779558181763 -0.89453399181366 -0.922400116920471 -0.24685338139534 7.77526521682739 0.37907201051712 -0.17133504152298 2.12359261512756 4.11266040802002 12.3156490325928 2.73412179946899 0.00672000693157315 3.31538605690002 4.68846130371094 11.9388742446899 -2.04709529876709 -1.96725106239319 -1.87311673164368 1.1020644903183 1.92890548706055 2.11681914329529 2.24539971351624 4.36997985839844 2.80996680259705 5.99024486541748 13.697826385498 3.06277990341187 5.07121515274048 6.90112972259521 17.4332714080811 7.42102289199829 2.82126426696777 -2.59879922866821 -0.948821663856506 1.27184677124023 4.99627590179443 7.31583118438721 10.8942422866821 3.01013374328613 12.8806028366089 14.6988229751587 24.9473457336426 19.2101917266846
9.30195617675781 10.4959774017334 5.22277402877808 5.55139350891113 3.41763877868652 4.77360391616821 0.791951954364777 0.957108914852142 0.192661598324776 0.405625939369202 0.548299193382263 0.632371306419373 0.715663850307465 0.811401665210724 0.918234348297119 1.04890167713165 1.21288359165192 11.7241497039795 14.089373588562 40.234920501709 19.1932220458984 16.7330284118652 3.62834477424622 4.76935815811157 2.26420974731445 6.05017137527466 5.01301002502441 7.03417634963989 4.04494476318359 10.6039028167725 4.14092350006104 0.914420783519745 1.07410848140717 3.11813473701477 0.417028099298477 0.967154741287231 1.14444708824158 4.7869553565979 4.38147211074829 3.38131403923035 2.30333614349365 1.36553227901459 1.84811651706696 4.71224355697632 5.62962055206299 6.33262586593628 5.40093040466309 1.84446811676025 1.75196862220764 1.50108301639557 1.4452064037323 1.25261342525482 1.19906830787659 11.3067111968994 12.3459138870239 12.9821920394897 14.1635131835938 15.868465423584 19.1532402038574 23.5381011962891 36.0284805297852 8.6531867980957 17.38161277771 13.0929946899414 -0.610498607158661 -0.558494627475739 4.78105497360229 12.4206113815308 18.8257026672363 35.6706008911133 -0.824638426303864 8.65344905853271 23.0935688018799 11.7330808639526 -0.448650568723679 -0.0247852299362421 0.401471942663193 0.46363353729248 1.32825410366058 1.52092313766479 1.62678873538971 2.18222713470459 9.2439079284668 1.79857134819031 1.61183547973633 1.68668401241302 1.56760430335999 1.40458977222443 1.64637422561646 1.23403406143188 1.00695407390594 0.562797427177429 1.5708270072937 14.2565870285034 2.21556901931763 2.41975140571594 2.86664295196533 3.63247227668762 3.82252979278564 4.28049993515015 4.31249713897705 4.86341333389282 4.76888608932495 5.02161598205566 4.62189722061157 4.18810701370239 3.49865102767944 3.59554958343506 3.69921708106995 3.86196064949036 3.77614164352417 3.91596150398254 3.89125990867615 3.95176315307617 16.1672039031982 13.6565618515015 1.65565061569214 4.18803119659424 1.44868445396423 0.561866879463196 9.80460929870605 -0.161145061254501 6.57035875320435 2.19626450538635 -0.354172587394714 0.598685920238495 0.297680228948593 0.0750294253230095 -0.372154057025909 -0.632361173629761 2.03197455406189 13.252739906311 4.08258676528931 -0.883627474308014 0.628411114215851 0.0391443930566311 17.5712432861328 19.9054794311523 16.2381916046143 11.1983070373535 5.07821226119995 7.43765020370483 0.913156569004059 -0.529952645301819 2.78569984436035 17.609016418457 -2.06338214874268 -0.521478235721588 -0.44404399394989 1.13950312137604 1.78500843048096 1.23055326938629 3.42053294181824 4.31790447235107 5.55187749862671 6.85977268218994 2.50186586380005 8.26875114440918 8.84325790405273 12.5732583999634 9.5368070602417 25.2606868743896 40.0757522583008 25.6105766296387 4.96367692947388 2.87848043441772 3.24900770187378 4.08210039138794 5.22891426086426 8.37350463867188 23.8624610900879 18.2829418182373 14.643458366394 17.7257080078125
7.90127182006836 9.24161434173584 4.98437690734863 5.16859817504883 2.48385047912598 0.731576859951019 0.833946645259857 0.0298214685171843 0.110475316643715 0.325111240148544 0.50884747505188 0.628320455551147 0.718781054019928 0.825166940689087 0.963904500007629 8.13255596160889 10.3644027709961 11.6621789932251 23.3953762054443 24.8567199707031 18.0320510864258 13.4737730026245 3.63177537918091 7.21525907516479 2.581374168396 2.54919338226318 1.29727172851562 0.984293401241302 2.16324162483215 7.71893310546875 2.20663118362427 0.79373174905777 2.31334447860718 2.28412103652954 0.60942554473877 0.562187850475311 1.48522520065308 4.15642499923706 3.19934964179993 2.18389344215393 1.31778013706207 4.326584815979 4.4244909286499 5.24068117141724 5.81418609619141 4.92754888534546 1.70993316173553 1.59933543205261 1.35248196125031 1.25645160675049 1.1194099187851 1.05903124809265 9.59476757049561 10.0827207565308 10.4249505996704 11.401198387146 12.2120866775513 13.5401630401611 14.9318866729736 20.1430130004883 26.38844871521 10.4881906509399 37.6205215454102 41.8904571533203 -1.31937098503113 -0.903696119785309 7.95529127120972 11.8393239974976 18.5320625305176 6.85230684280396 2.65129566192627 11.7528648376465 8.05852508544922 20.2270812988281 12.686939239502 11.4167556762695 7.13885974884033 1.16272950172424 1.12023401260376 1.53129160404205 1.99223852157593 1.79831504821777 1.83574211597443 1.42626905441284 1.25973761081696 1.47495818138123 1.05292284488678 1.24644637107849 0.892063021659851 0.650986015796661 -0.157017439603806 0.58102160692215 0.56290739774704 1.77377223968506 2.37225580215454 1.92473220825195 2.68157362937927 3.62612175941467 3.96242809295654 4.30987882614136 4.65235090255737 4.72411775588989 4.80121469497681 4.41396570205688 3.98534393310547 3.31732106208801 3.4192841053009 3.50477814674377 3.43025422096252 3.1405713558197 3.72493004798889 3.64392828941345 3.86493396759033 7.38321971893311 3.91867065429688 19.3992767333984 0.819074153900146 0.976083636283875 12.4256219863892 0.0603525377810001 4.12346744537354 -0.796682119369507 1.55227887630463 -0.405655980110168 1.20856809616089 -0.0687657669186592 -0.535406053066254 -0.813624382019043 -1.571937084198 -1.98197090625763 -2.12607717514038 -1.90480375289917 -1.49456477165222 -1.12835609912872 -0.512778222560883 13.040452003479 6.45042753219604 5.1004695892334 10.3820056915283 20.6207084655762 5.93650913238525 6.71900606155396 14.2630796432495 6.45051336288452 12.1474561691284 15.3521432876587 -1.74388897418976 2.28686952590942 0.733458757400513 0.955458760261536 5.01994228363037 1.13767004013062 1.56425523757935 4.76220989227295 2.43553137779236 1.96912324428558 3.8299720287323 6.62625169754028 8.42418193817139 4.28156900405884 11.4314908981323 18.2105140686035 20.1725997924805 10.7314853668213 2.34573340415955 2.40052270889282 3.46435809135437 4.4536919593811 6.07059717178345 12.9565305709839 13.1764259338379 11.0962343215942 9.44218254089355 7.25729751586914
8.49633598327637 15.1095275878906 7.77095794677734 10.013035774231 6.06231546401978 2.140789270401 0.838912189006805 0.0586481019854546 0.0948892757296562 0.252649903297424 0.463124603033066 0.615798890590668 0.719042360782623 0.864872097969055 6.80138349533081 8.67627620697021 12.1192560195923 16.4811744689941 16.4311428070068 27.9960155487061 38.6579093933105 14.4255485534668 7.6818733215332 5.13687038421631 5.06263828277588 8.81461143493652 1.15307784080505 1.86459016799927 3.21822667121887 4.20374584197998 0.401704400777817 0.530872106552124 1.4324346780777 9.62059593200684 0.0189726296812296 0.00831014104187489 -0.721970498561859 -0.210274085402489 2.08426880836487 1.6853586435318 4.09811067581177 4.79026985168457 4.89522838592529 5.3638072013855 4.50512742996216 1.58357548713684 1.46205568313599 1.23158574104309 1.10292291641235 0.960681557655334 0.88568651676178 8.33080673217773 8.73825931549072 8.82679271697998 8.95853233337402 9.77329730987549 11.3617515563965 12.2874479293823 14.4729623794556 14.9487028121948 23.4925651550293 20.7771396636963 22.7999439239502 43.6841163635254 41.5639038085938 -0.889344871044159 -1.10958826541901 -1.64643371105194 -0.754005610942841 6.03716897964478 6.59464740753174 7.8568902015686 12.3559274673462 25.0422325134277 12.958348274231 20.6229705810547 1.00864899158478 6.56351232528687 1.30040919780731 1.64868223667145 1.96978425979614 2.16417837142944 9.83853912353516 1.02306282520294 0.591059744358063 0.738792300224304 0.764447867870331 0.495257049798965 0.258186429738998 0.430358290672302 -0.0186498649418354 0.34870058298111 0.64289402961731 1.60786461830139 12.0939083099365 2.43932390213013 2.519686460495 3.02593016624451 4.03959941864014 4.26832389831543 4.58912324905396 4.75564241409302 4.38342761993408 3.81219220161438 3.15691947937012 3.25985860824585 3.34181499481201 3.24103498458862 2.96480941772461 3.54623508453369 3.42669630050659 3.62331557273865 6.3704047203064 11.2364940643311 10.0760669708252 14.7003974914551 1.10035979747772 3.7012894153595 -0.318360388278961 -1.04738366603851 -1.32427453994751 -0.5088210105896 13.8750867843628 0.395817399024963 -0.199206218123436 -1.00655591487885 -1.52736186981201 -2.27725076675415 -2.63422775268555 -3.12073731422424 -3.4303674697876 -3.13998079299927 -2.35203194618225 -1.78827548027039 -1.77636885643005 -0.406208723783493 11.327428817749 7.76016902923584 15.9613561630249 21.864803314209 11.0652160644531 11.2539615631104 4.58706331253052 2.91200709342957 2.81269216537476 5.93801116943359 7.49284791946411 5.15488386154175 0.666240513324738 1.61721336841583 3.55967688560486 1.30313110351562 2.61350393295288 10.3183355331421 0.950903475284576 9.83849811553955 7.4328293800354 5.30486392974854 4.35686588287354 4.3812518119812 12.9106349945068 9.878098487854 10.7141914367676 8.50953674316406 1.62621986865997 0.592811167240143 4.25638341903687 8.29667377471924 7.96271228790283 4.49388837814331 3.22521018981934 7.61403799057007 6.17471170425415 4.16618204116821
9.21716976165771 14.5308074951172 14.7371129989624 8.2129487991333 5.1031346321106 3.48939752578735 2.08555507659912 0.376853942871094 0.126230746507645 0.249927908182144 0.423543870449066 0.586411356925964 0.750632882118225 5.74792861938477 7.43726348876953 10.2016563415527 12.1872682571411 13.4462289810181 16.4785785675049 22.5182876586914 38.2694129943848 28.5732574462891 7.09625005722046 1.15765285491943 1.59288609027863 7.34237146377563 12.1118927001953 2.98225927352905 1.00225460529327 7.752845287323 0.191126942634583 0.347504198551178 0.522010147571564 2.98479175567627 1.35291862487793 -0.797598659992218 -1.36809122562408 -0.236579492688179 1.63299334049225 3.90646243095398 4.54326152801514 4.54314422607422 4.97890615463257 4.15884304046631 1.47219741344452 1.35502731800079 1.14032053947449 0.998542726039886 0.870831787586212 0.784449636936188 7.31957817077637 7.67840766906738 7.63034296035767 7.54089546203613 8.18479919433594 9.6161994934082 9.53177452087402 11.2309808731079 10.678936958313 13.4572172164917 15.6305904388428 16.8381729125977 25.8256683349609 21.7637214660645 40.2125091552734 12.3336553573608 4.0942497253418 -0.96344918012619 2.42612791061401 3.86999249458313 4.2621545791626 8.36882781982422 7.19392442703247 2.20606589317322 0.601202070713043 0.950763761997223 5.58502149581909 1.29401552677155 5.188880443573 1.56181013584137 1.84344482421875 8.34026622772217 16.9650363922119 0.485930144786835 3.05318284034729 -0.0153594613075256 0.129700317978859 -0.0367483235895634 -0.765017449855804 -0.412376016378403 -0.102569848299026 1.23455929756165 0.633958160877228 1.59496688842773 14.0921077728271 13.108154296875 2.70544409751892 3.2186484336853 3.93766641616821 4.29408979415894 4.55629301071167 4.35621547698975 7.5107684135437 3.86246109008789 3.11474990844727 3.19506096839905 3.07444739341736 2.81024861335754 3.2312650680542 3.24538350105286 3.73061609268188 4.69029855728149 7.92473316192627 14.6916275024414 11.379430770874 5.47746276855469 1.51525092124939 9.75107860565186 3.00044918060303 -1.72489523887634 -1.7041255235672 -1.34882664680481 0.286593794822693 -0.439741164445877 -1.01184296607971 -1.72344040870667 -2.83060503005981 -3.11878371238708 -3.28872919082642 -3.4150071144104 -3.78029727935791 -3.82986068725586 -3.37160849571228 -2.42624020576477 -2.05372405052185 0.913146913051605 6.09633731842041 8.57265567779541 3.99590468406677 7.84649324417114 9.24802112579346 10.8004083633423 17.7499198913574 19.8259544372559 12.9283132553101 -0.581800401210785 0.0859172493219376 0.172648072242737 0.413894087076187 1.37159979343414 0.612256228923798 2.4976179599762 1.79445540904999 0.328592568635941 3.27325987815857 3.71060347557068 5.99945497512817 1.20192587375641 5.9170503616333 6.3043007850647 2.51031517982483 2.58849453926086 14.5851383209229 7.54878044128418 1.86296331882477 3.53425049781799 15.4661340713501 2.1589834690094 5.92417192459106 16.7337799072266 5.89417314529419 5.1037654876709 3.66441464424133 4.07315874099731
7.81020355224609 10.0762338638306 15.6070690155029 13.7685766220093 7.75175476074219 5.88844013214111 4.3168625831604 2.25808358192444 0.196783229708672 0.286562383174896 0.395321130752563 0.594940483570099 4.75430870056152 6.40706586837769 8.76382541656494 10.0598039627075 11.8874778747559 13.370813369751 15.9536933898926 22.3357563018799 24.9731369018555 6.36011934280396 7.91385555267334 6.79579019546509 1.12937831878662 4.96237564086914 2.82043147087097 9.31795024871826 11.8608283996582 7.18004846572876 3.93489837646484 9.07122230529785 3.39032030105591 0.00381910451687872 2.26662659645081 4.28475284576416 -1.98174297809601 -1.89282965660095 1.51627171039581 4.32562208175659 4.61137199401855 4.68752670288086 3.88231205940247 1.39059948921204 1.28110027313232 1.08285284042358 0.937635779380798 0.783421397209167 0.701175808906555 6.55813217163086 6.87583827972412 6.7154335975647 6.51671600341797 7.04997587203979 8.29489421844482 8.2554407119751 8.99720668792725 9.03303718566895 11.475944519043 12.432089805603 13.9280261993408 8.99022197723389 16.5177326202393 22.6464080810547 33.9634437561035 4.32146120071411 9.74079704284668 3.35734701156616 2.94799613952637 9.62677955627441 7.08711385726929 9.06949520111084 24.065113067627 19.0316734313965 5.01303672790527 2.15672731399536 1.21465802192688 1.53439152240753 1.49101388454437 1.50999903678894 6.09283018112183 3.90710186958313 15.6761445999146 2.46700429916382 11.192925453186 -0.162448808550835 -0.816551983356476 -0.957517445087433 -1.0007803440094 -0.410250127315521 -0.200272709131241 0.455657750368118 1.43081402778625 1.8912239074707 2.29174566268921 19.2717838287354 2.74157428741455 2.98628664016724 4.05680799484253 3.93421530723572 4.08050107955933 3.8053617477417 3.9271821975708 7.71102428436279 3.66582727432251 3.56885814666748 3.57120585441589 3.09580302238464 3.07122182846069 3.3789005279541 4.90684795379639 7.48609590530396 9.41679000854492 15.0739002227783 19.1358127593994 6.59381818771362 8.10936164855957 14.6162185668945 7.19449901580811 -2.14464712142944 -2.13060855865479 -1.02903425693512 4.24329948425293 -1.0338968038559 -1.76010930538177 -2.89141035079956 -3.34936499595642 -3.6876368522644 -3.80488514900208 -3.981032371521 -4.2808690071106 -4.35346126556396 -4.14334154129028 -3.62079048156738 -2.82318925857544 -1.67857098579407 0.952736675739288 18.7438850402832 6.50767183303833 7.75509309768677 5.79090595245361 15.7393341064453 12.7306880950928 8.3024959564209 20.1719207763672 15.7323808670044 8.87486553192139 0.279638260602951 0.203106209635735 11.4136018753052 12.8105850219727 2.87403988838196 7.36844062805176 1.15958738327026 1.66426348686218 1.27709054946899 3.58342742919922 6.14988374710083 4.11575317382812 2.0380277633667 0.0314541906118393 8.17752647399902 3.66115760803223 21.0044555664062 2.39138269424438 6.84417200088501 13.012939453125 13.563136100769 2.27743554115295 5.73977088928223 2.52810573577881 1.69218635559082 8.44322872161865 21.6626682281494
7.84247159957886 8.31174278259277 10.7061100006104 15.4438371658325 10.4054384231567 7.24600648880005 5.39801597595215 3.12815833091736 0.26886922121048 0.317129373550415 0.432068109512329 3.72746777534485 5.31376504898071 7.51605129241943 8.62930393218994 10.0164604187012 11.0020542144775 12.3801136016846 15.8375358581543 17.8672676086426 38.5373382568359 33.1911430358887 7.88784170150757 4.28364229202271 0.619512915611267 2.61920785903931 0.721172153949738 6.64184761047363 1.63363933563232 0.331357717514038 2.09946823120117 0.579216480255127 8.17826652526855 1.45814597606659 3.87894678115845 6.87386512756348 10.5967559814453 0.987692594528198 1.40288496017456 4.38957786560059 3.63019490242004 3.67358565330505 1.27021944522858 1.22202408313751 1.02775943279266 0.873128294944763 0.74099987745285 0.62319803237915 5.89276885986328 6.19029378890991 5.97581672668457 5.72702264785767 6.19609880447388 7.25973320007324 6.90619468688965 6.90726661682129 7.62412929534912 9.7458610534668 10.5660429000854 11.4439287185669 33.8824424743652 5.20036840438843 18.3831958770752 21.23606300354 30.2983474731445 6.14923286437988 2.66097831726074 7.93722677230835 6.19567203521729 3.93522906303406 6.47840547561646 7.47246980667114 10.7210569381714 15.2868795394897 7.7357816696167 12.0415563583374 1.39817094802856 1.17837905883789 3.55725789070129 1.9702730178833 12.5946788787842 8.46658039093018 0.695860266685486 -0.0403002761304379 -0.215728342533112 -1.07166039943695 -1.12843608856201 -1.33262455463409 -0.605097055435181 -0.259395837783813 0.437875539064407 1.10825657844543 1.05115759372711 2.12584519386292 6.49725580215454 19.4727230072021 2.98171305656433 3.11336064338684 3.6760618686676 3.41838026046753 3.20419716835022 3.11270833015442 3.91709494590759 4.0817756652832 3.90294432640076 3.83309817314148 7.28662633895874 3.73323225975037 3.6120913028717 4.13228321075439 7.76924276351929 8.58027076721191 10.0253686904907 18.3530101776123 27.7000064849854 6.84224033355713 2.85198020935059 16.54762840271 9.82423496246338 -2.37964582443237 -2.17179155349731 -1.26804888248444 -2.1894199848175 2.8734347820282 0.130995959043503 -3.49999642372131 -0.358109802007675 -3.99851512908936 -4.24111318588257 2.76496458053589 -2.52019691467285 -4.61778497695923 -4.57272481918335 -4.28999328613281 -3.91424107551575 -2.94292211532593 -2.48458766937256 2.65044689178467 6.33968257904053 17.3075752258301 5.83858728408813 5.43621110916138 -1.53795003890991 -0.709243178367615 -0.208296686410904 0.240395560860634 5.66738891601562 7.80579280853271 3.54048132896423 0.476805925369263 1.54967534542084 0.156834557652473 16.1699371337891 1.54701495170593 2.5626220703125 5.73054456710815 4.26301956176758 2.10158729553223 -0.125883474946022 -1.14370775222778 5.10862827301025 2.22253561019897 12.2515993118286 0.702871084213257 1.26012802124023 19.5558662414551 1.2785142660141 13.6926517486572 1.24788761138916 1.70539355278015 9.3594388961792 1.73088526725769 8.98565292358398 13.2545938491821
6.46771097183228 7.48084402084351 8.39837265014648 9.87950134277344 13.0725507736206 8.21964740753174 6.49260807037354 4.22228384017944 1.30847859382629 0.420224517583847 3.24137902259827 4.45535612106323 6.25371789932251 7.27972555160522 8.54075527191162 9.25113582611084 11.098123550415 12.4489116668701 13.9643287658691 22.6171035766602 26.4971408843994 41.3697357177734 28.0447959899902 32.8680686950684 2.4688777923584 10.3844203948975 4.61923694610596 0.87549751996994 11.8111972808838 19.2009944915771 19.3618259429932 12.1845417022705 1.41435098648071 4.22953319549561 9.68301677703857 11.4335565567017 0.858083248138428 6.54304361343384 1.1507408618927 0.615886807441711 1.34623754024506 1.21711468696594 1.02218413352966 0.899408102035522 0.848281919956207 0.685954391956329 0.591760516166687 5.38241243362427 5.60568952560425 5.34081697463989 5.03568696975708 5.4829797744751 6.46615982055664 5.87893867492676 6.06690979003906 6.50412607192993 8.4293384552002 8.93923187255859 12.044976234436 18.9226245880127 34.3854217529297 3.8592357635498 7.68511295318604 24.7302894592285 2.70440912246704 4.24987983703613 6.84120035171509 4.06286334991455 2.02268314361572 1.62228047847748 1.88466656208038 8.01762962341309 7.97810983657837 3.42629814147949 1.10535538196564 4.30863332748413 1.02335369586945 5.68263530731201 1.26582288742065 3.39436435699463 15.6996269226074 3.22829127311707 3.96553254127502 -0.528440177440643 -1.4910352230072 -1.21146881580353 5.2211012840271 -1.10072541236877 -1.11239099502563 -0.232527270913124 0.374813944101334 0.904043018817902 1.27851438522339 2.20865941047668 2.6608304977417 10.1771430969238 15.7631578445435 3.15616893768311 3.26241731643677 2.73999071121216 2.83089637756348 3.06332063674927 2.79738426208496 3.01172041893005 3.08555603027344 3.72753620147705 2.97169017791748 3.12777662277222 3.58045315742493 6.59448719024658 8.27993869781494 9.12652111053467 11.5795993804932 13.4794416427612 10.3984394073486 16.7341384887695 11.1256322860718 14.5554962158203 13.3103017807007 12.3746223449707 -3.35906410217285 -2.91411900520325 -2.10697340965271 3.0416841506958 13.5610589981079 12.1753597259521 0.732347190380096 -0.759137690067291 -0.489686012268066 1.16954183578491 -4.96210050582886 -4.92835521697998 -4.6795334815979 -4.35691547393799 -4.38929224014282 -4.15477609634399 -2.79880809783936 -1.85783708095551 2.6662425994873 3.09921288490295 1.55278420448303 -2.20047950744629 -1.80607569217682 1.37591993808746 -0.251611620187759 -0.237576693296432 -0.410763889551163 0.322507083415985 0.0601962469518185 0.727436602115631 1.24524712562561 0.158158183097839 1.06384289264679 0.68419349193573 1.14133667945862 1.56060397624969 0.11844589561224 -0.89900803565979 5.72461938858032 1.07548725605011 10.0618324279785 6.23197746276855 14.3597726821899 13.3348722457886 6.71466732025146 24.503246307373 1.2226722240448 1.11342895030975 1.22002625465393 1.67624080181122 7.74878406524658 5.5667896270752 8.80600261688232 10.8055896759033
5.74090433120728 6.3694486618042 6.89110326766968 7.68594694137573 9.92346858978271 6.54376459121704 6.98127174377441 5.4420337677002 2.56322169303894 3.09430336952209 4.08675098419189 5.47935056686401 6.10708618164062 7.10234689712524 7.74519109725952 9.27629852294922 9.90833473205566 11.1701889038086 16.0239315032959 19.0782032012939 24.4151992797852 29.4813899993896 19.8662643432617 5.09356117248535 10.272632598877 3.60192060470581 3.774906873703 11.3630294799805 8.98750972747803 15.7519559860229 5.55626153945923 8.23425388336182 10.9378309249878 11.1716566085815 2.57017660140991 8.03904438018799 10.9744939804077 6.59514474868774 7.64989137649536 -0.925051748752594 1.19882225990295 1.00440037250519 0.8653284907341 0.838174343109131 1.01115131378174 0.566877365112305 4.97167253494263 5.17032480239868 4.87738609313965 4.52748441696167 1.35495924949646 0.410376012325287 -0.141970783472061 0.374580055475235 0.11395076662302 1.26441371440887 7.69093036651611 10.1819667816162 12.934232711792 19.1350574493408 39.9075889587402 31.4416427612305 10.3776226043701 18.9457969665527 39.6128120422363 12.6316728591919 3.16890382766724 5.19639348983765 4.82502508163452 9.52182102203369 2.95320987701416 1.18957507610321 1.30795919895172 18.4493675231934 3.59013748168945 10.4783458709717 3.56357383728027 15.5228538513184 3.11925888061523 5.12810039520264 2.76777362823486 2.52076578140259 -0.372447550296783 4.69630718231201 -1.41731286048889 -1.65871047973633 1.4715211391449 1.96550059318542 -1.26141250133514 -0.839706838130951 0.00409503513947129 0.643931150436401 1.4920859336853 2.50834178924561 2.87334728240967 4.00553798675537 2.92675709724426 2.47242712974548 2.54191660881042 2.68210077285767 2.80030488967896 2.82048559188843 2.88671350479126 2.97932028770447 2.75543856620789 2.84525299072266 2.99689245223999 3.17896461486816 5.71178340911865 7.01675367355347 8.54652214050293 9.44486904144287 12.5642232894897 14.0979595184326 7.67067670822144 10.8044691085815 12.2388486862183 22.2688236236572 14.3755702972412 19.5058727264404 10.8314619064331 -3.05338358879089 -2.58806109428406 6.93677186965942 7.40389156341553 11.1571598052979 4.94798803329468 -1.9983674287796 -0.120853699743748 9.84830856323242 8.46429538726807 11.0928134918213 -1.4515084028244 -4.82427740097046 -5.00086879730225 -4.29721593856812 -3.21930646896362 -2.15862798690796 -0.627154529094696 -1.48397147655487 13.7042217254639 -2.54236578941345 -2.5366370677948 -1.8814789056778 -0.740658640861511 -0.55371230840683 -0.191563248634338 -0.106777563691139 -0.783453166484833 0.90370899438858 0.563993215560913 0.521943390369415 0.468602180480957 4.47129583358765 1.37647354602814 2.12871646881104 2.82114100456238 -1.18003666400909 0.163712114095688 4.05306196212769 4.62999534606934 5.92720127105713 9.60465335845947 3.52559113502502 5.24711990356445 21.7339630126953 -0.184010967612267 1.00138401985168 1.30934405326843 1.59611821174622 4.09224653244019 7.74946403503418 8.7483959197998 18.8078708648682
