NCOLS 174
NROWS 31
XLLCORNER 353728
YLLCORNER 6700944
CELLSIZE 16 
NODATA_value -3.4e+38 
12.5568141937256 13.4005212783813 14.3186645507812 14.8198232650757 16.1576595306396 23.3300914764404 29.9602870941162 42.8119430541992 38.0642585754395 13.1525106430054 15.7257766723633 26.8356666564941 13.8709945678711 19.2618160247803 21.1765232086182 31.4404792785645 22.9061641693115 2.24017071723938 4.52338743209839 1.46150612831116 1.78231036663055 2.4316246509552 7.87612056732178 13.5395669937134 30.0847492218018 3.91815876960754 5.01793766021729 7.86001205444336 6.41307544708252 11.3090553283691 12.2045001983643 12.7359504699707 17.1937217712402 14.1534538269043 14.5341548919678 15.2632389068604 23.4587516784668 -3.86113023757935 -3.84153366088867 -3.78149938583374 -3.65960311889648 -3.32822680473328 -2.21143937110901 3.93378400802612 15.4300546646118 10.6734199523926 19.7562065124512 13.1841201782227 -3.66724967956543 -3.21720218658447 -2.86021542549133 -2.72036528587341 -1.09204506874084 9.87197780609131 -3.14960813522339 5.33488941192627 -2.75839638710022 0.0414463169872761 1.95657134056091 2.07998871803284 3.92701005935669 3.38526201248169 6.93602275848389 18.3655872344971 4.17757225036621 -1.71982502937317 -1.20003199577332 -0.250816643238068 1.53198349475861 1.92181646823883 2.01076054573059 2.25201654434204 2.25882935523987 1.0903080701828 0.898751854896545 0.666213929653168 0.421565324068069 0.445647209882736 -0.443038880825043 -0.441621333360672 -0.43513223528862 -0.43388819694519 -0.385930776596069 -0.369344621896744 -0.320683628320694 -0.314020693302155 -0.305599868297577 -0.286230206489563 -0.264551162719727 -0.249039545655251 -0.233316496014595 -0.212502926588058 0.0437367558479309 0.237785175442696 0.264127314090729 0.309099465608597 0.355024516582489 0.405847609043121 0.45750817656517 0.530212104320526 0.625961184501648 0.718462109565735 0.818970084190369 0.662065744400024 0.0722045376896858 0.110975161194801 0.141950741410255 0.776927947998047 0.846299290657043 0.905326426029205 1.00920248031616 1.10431158542633 1.22885358333588 1.35307514667511 1.48425257205963 1.570183634758 1.36429381370544 1.88508677482605 2.04224157333374 2.25315713882446 2.46999859809875 2.71941137313843 3.03541684150696 3.3610577583313 3.79311966896057 4.40684223175049 5.10611391067505 0.670338809490204 4.23904752731323 5.9710955619812 9.70709896087646 21.6977062225342 -0.478756278753281 -0.332932829856873 0.533813178539276 0.664055585861206 0.677519381046295 1.13016414642334 1.14647388458252 1.18051016330719 1.20374274253845 1.2285543680191 1.17674970626831 1.58081412315369 1.60690891742706 1.9100489616394 1.98609066009521 2.00960254669189 2.05620574951172 2.6037540435791 2.95840191841125 3.47702431678772 3.65571165084839 3.96834778785706 4.04625511169434 4.12839889526367 5.45312738418579 7.32006740570068 10.9400339126587 21.334379196167 4.87766742706299 5.31216907501221 5.57004404067993 9.69298267364502 5.60103225708008 5.720458984375 5.86138486862183 6.10503673553467 6.3025598526001 6.80458879470825 6.97159433364868 7.14641904830933 7.325439453125 7.5263295173645
11.6308746337891 12.4364404678345 14.1652822494507 16.139030456543 18.8502941131592 19.2032852172852 25.0107002258301 35.6935348510742 33.5608215332031 16.1960163116455 16.7301712036133 18.0425701141357 13.9370918273926 19.0969333648682 23.1340866088867 23.2399482727051 26.6790542602539 1.20564424991608 2.02178835868835 17.8834457397461 2.3031861782074 2.4927990436554 6.43923330307007 9.43851661682129 19.4019889831543 23.2816162109375 4.01462650299072 17.1987285614014 6.6937255859375 11.6170740127563 19.5040073394775 20.0411548614502 31.120304107666 47.7537841796875 0.83521980047226 8.40209197998047 25.4724979400635 -0.192334666848183 7.27752304077148 -1.77370309829712 -1.4425847530365 -0.311778992414474 3.36231398582458 4.59545230865479 9.24954605102539 26.4022903442383 17.6092662811279 22.8727512359619 -3.89672493934631 -3.7620861530304 -3.45795106887817 2.90365886688232 20.5729160308838 -0.929682016372681 -3.05400776863098 -2.85262656211853 0.902521193027496 -2.69582724571228 -1.64214909076691 1.82718431949615 3.7112877368927 11.8077068328857 -1.33463978767395 17.3438472747803 -1.36296772956848 -1.1418594121933 0.939981281757355 1.47065377235413 1.81122612953186 1.96820962429047 2.40756916999817 3.0041663646698 1.67641484737396 0.953461050987244 0.603397607803345 0.664574921131134 0.630401015281677 0.489794582128525 -0.155659630894661 -0.37058699131012 -0.354752153158188 -0.339097827672958 -0.322685986757278 -0.140654310584068 -0.00543383928015828 0.00348238903097808 0.0163045078516006 0.0373440720140934 0.0660212710499763 0.0932225361466408 0.115618824958801 0.142947167158127 0.179227232933044 0.0192810744047165 -0.331248044967651 -0.314165323972702 -0.302286505699158 0.0734480544924736 0.115443609654903 0.156875148415565 0.221665218472481 0.279136419296265 0.348998486995697 0.424885869026184 0.496946811676025 0.568878769874573 0.624848127365112 0.423412203788757 0.773381531238556 0.842518270015717 0.927711606025696 1.0278559923172 1.13417017459869 1.26002502441406 1.38587629795074 1.50292634963989 1.65651941299438 0.258039504289627 1.31479728221893 1.43342173099518 1.56865179538727 1.74931991100311 1.8915753364563 2.09747099876404 2.33391070365906 2.5942018032074 2.78752112388611 2.84565186500549 1.62527132034302 2.3205246925354 3.80899119377136 7.39453554153442 17.8875560760498 -0.260848581790924 0.425025284290314 0.692540228366852 0.716750383377075 0.817699730396271 0.833297193050385 0.853378474712372 1.06821131706238 1.08925950527191 1.11146998405457 1.40757417678833 1.43962907791138 1.48171412944794 1.60648143291473 1.8161416053772 1.93014740943909 2.56694197654724 2.61715722084045 3.16016912460327 3.40747380256653 3.50708341598511 4.30959701538086 4.52406692504883 4.63541841506958 4.97353315353394 6.38424730300903 9.07559490203857 12.0924921035767 5.18745040893555 5.6513147354126 12.4315748214722 7.14629793167114 8.20329570770264 27.57080078125 5.67382097244263 6.77401781082153 6.93494129180908 7.11246395111084 7.30249786376953 7.50841474533081 7.85180902481079
11.5326461791992 12.3373136520386 13.3192052841187 14.3189363479614 15.859845161438 18.3224143981934 21.1116409301758 29.318567276001 36.2413711547852 26.3181076049805 38.6450691223145 16.4947052001953 11.3812456130981 11.9758281707764 10.8624124526978 20.452449798584 37.4651718139648 17.4068965911865 0.881750702857971 2.15452671051025 3.71181106567383 4.8216609954834 5.16144990921021 8.39168834686279 10.2390031814575 5.31926679611206 5.35028028488159 9.6065092086792 12.3119974136353 16.4625625610352 12.5129442214966 11.735424041748 15.5079832077026 11.2725563049316 7.99513006210327 6.21246767044067 6.28984355926514 14.069712638855 9.17966175079346 0.479407727718353 1.29299640655518 3.43039631843567 5.4924955368042 10.3995141983032 16.5284252166748 23.0119113922119 23.0763683319092 0.693249464035034 1.31045746803284 -3.82674407958984 -3.53983020782471 -3.33619046211243 14.7103128433228 -3.00303196907043 4.94014120101929 15.6917591094971 -2.43357944488525 -1.97475504875183 -1.66178679466248 6.89937210083008 20.549991607666 0.0892049297690392 -1.51464200019836 -1.19860601425171 3.01923036575317 6.3980827331543 14.2372674942017 7.21205902099609 12.0296230316162 -1.12420213222504 2.92782545089722 3.28534936904907 2.3085560798645 1.14712727069855 0.559460818767548 0.568553626537323 0.647638261318207 0.419284164905548 -0.193649590015411 -0.0800140053033829 -0.0644980818033218 -0.04280935972929 -0.0215636473149061 -0.0133008575066924 -0.121763326227665 -0.0336181856691837 -0.384233355522156 -0.533517003059387 -0.130617126822472 -0.104693196713924 -0.0847671702504158 -0.0708020552992821 -0.0647391751408577 -0.0611285716295242 -0.054102286696434 -0.0398325137794018 -0.017305426299572 -0.173888117074966 0.0821185782551765 0.124390386044979 0.182646319270134 0.225399598479271 0.283694416284561 0.342711985111237 0.417777627706528 0.484489232301712 0.539994418621063 0.620463192462921 -0.0527439750730991 0.408009260892868 0.454694777727127 0.539966821670532 0.622962892055511 0.724667310714722 0.822307705879211 0.932417273521423 1.00480902194977 1.11597716808319 0.841564893722534 0.954220533370972 1.05413591861725 1.14801633358002 1.26429069042206 1.38263344764709 1.58514869213104 1.80674636363983 2.19155120849609 2.25288271903992 1.50695621967316 -0.052031971514225 -0.0220160838216543 0.042774636298418 0.452452212572098 0.591858744621277 0.672195851802826 0.689585387706757 0.702109217643738 0.98302811384201 1.02178800106049 1.08027291297913 1.14635217189789 1.20965015888214 1.29814553260803 1.37895774841309 1.44683611392975 1.55896437168121 1.62286126613617 2.1178252696991 2.1609570980072 2.20896625518799 2.2651674747467 3.07306051254272 3.51573419570923 3.57498359680176 3.7490656375885 3.83095216751099 3.9080593585968 4.96913766860962 6.61866807937622 10.4497718811035 16.5542163848877 5.34941148757935 9.19956493377686 10.7856826782227 18.537748336792 31.4267807006836 5.42448854446411 6.59264755249023 6.85333728790283 7.03096389770508 7.22733926773071 7.40551614761353 7.60904216766357 7.63732814788818
11.1584606170654 12.1947011947632 13.6884088516235 15.1186103820801 16.8402824401855 19.4172344207764 22.829568862915 27.7901458740234 38.1520042419434 49.6543655395508 16.1768836975098 20.4344882965088 18.5756931304932 32.7811050415039 7.9700288772583 26.9042701721191 31.7694702148438 16.3720874786377 0.898662030696869 1.14971911907196 1.54518723487854 5.20978212356567 3.14541888237 31.9850921630859 4.31073760986328 15.1068897247314 1.95854365825653 4.41599273681641 6.52875137329102 8.65616035461426 11.2190885543823 23.8038787841797 10.2369918823242 8.74997997283936 6.7391185760498 13.3687810897827 20.3767147064209 6.80424976348877 0.948320686817169 -0.197442919015884 0.467506796121597 3.87399649620056 6.85123729705811 13.5183534622192 26.4498825073242 16.8674221038818 6.94431447982788 7.34795999526978 -1.33774995803833 0.863718569278717 -3.91856908798218 -3.65745162963867 -2.93544435501099 -2.75913619995117 5.82551574707031 16.9674377441406 -2.28112936019897 -0.662346541881561 2.88268446922302 10.1352090835571 13.7040576934814 -1.65138697624207 12.8958749771118 19.9372425079346 38.3206176757812 3.61579370498657 -0.798379242420197 5.85062599182129 14.6912775039673 -1.55350732803345 1.30892622470856 3.34737777709961 3.26747179031372 1.5235652923584 0.826040506362915 0.472524553537369 0.541611015796661 0.552750051021576 -0.11534807831049 -0.55924516916275 -0.508414089679718 -0.446839511394501 -0.308421939611435 -0.154401645064354 -0.151835307478905 0.0118367178365588 0.143064841628075 -0.146967679262161 -0.28410667181015 -0.0860275849699974 -0.0683203935623169 -0.0567762739956379 -0.0530187636613846 -0.0503999516367912 -0.0125675480812788 -0.0517451241612434 -0.037978108972311 -0.00255343387834728 -0.580350041389465 -0.145689636468887 -0.105517484247684 -0.0833237692713737 -0.0516854263842106 -0.0114804347977042 0.0456230081617832 0.0870841220021248 0.135247409343719 0.208749860525131 0.34169664978981 0.0600007027387619 0.161974400281906 0.22643980383873 0.299767881631851 0.377549231052399 0.463303238153458 0.546427667140961 0.639834880828857 0.679090619087219 0.768171906471252 0.486719727516174 0.579715311527252 0.657967865467072 0.785329043865204 0.898739278316498 1.29935383796692 1.54651641845703 1.83863604068756 2.3067421913147 0.937305212020874 0.87101423740387 0.275319218635559 0.301721304655075 0.428246736526489 0.621214985847473 0.790875136852264 0.901283442974091 0.948708117008209 0.851615726947784 0.861369371414185 0.88254189491272 0.909945905208588 0.968022584915161 1.05310297012329 1.11641681194305 1.76540887355804 1.85395777225494 1.93031239509583 2.03375887870789 2.13121056556702 2.23709535598755 2.36055135726929 2.50855255126953 3.20534348487854 3.41000199317932 3.68198227882385 4.01547908782959 4.39795827865601 4.85238742828369 5.40625762939453 6.09295129776001 7.32404232025146 9.77903175354004 5.65960216522217 5.9054651260376 5.99506044387817 6.04906511306763 6.29792547225952 6.82414388656616 6.96829032897949 7.1428394317627 7.32643127441406 7.53368616104126 7.73278045654297 7.92513704299927
10.7900218963623 11.7582597732544 12.9710550308228 14.0691823959351 15.4152202606201 17.5007514953613 18.9910430908203 22.28440284729 27.4254474639893 38.2878265380859 24.6509799957275 19.6835327148438 17.6436882019043 21.8145294189453 8.59323310852051 7.34862804412842 12.2906265258789 30.6245498657227 1.39291346073151 5.79667043685913 1.75681090354919 3.43531680107117 31.9308624267578 2.66336393356323 15.3114461898804 5.84896469116211 3.29551005363464 5.64030170440674 6.27786302566528 6.91898727416992 8.53214836120605 9.79415893554688 12.0031118392944 12.7659502029419 32.2672119140625 12.119402885437 27.0221252441406 1.002192735672 1.55131006240845 3.59971690177917 4.57328224182129 6.52692937850952 10.6619882583618 10.5424184799194 24.2291679382324 11.2166519165039 13.9653911590576 3.99174880981445 4.73433017730713 12.8282403945923 -3.88920164108276 -2.08924245834351 -2.80794167518616 -2.03369855880737 0.659842252731323 3.86202454566956 -1.97872221469879 -1.79528391361237 -1.71458971500397 2.59159398078918 8.11555576324463 15.8890008926392 27.3043384552002 20.7641506195068 -1.36557364463806 44.9867134094238 -1.54418754577637 -1.13458812236786 -0.910772085189819 3.38006782531738 3.99061584472656 4.04376602172852 3.19750785827637 2.57999801635742 1.23807954788208 0.669970035552979 0.312245845794678 0.355691194534302 0.402236878871918 -0.523399114608765 -0.49920442700386 -0.387141615152359 -0.254365980625153 -0.177945330739021 -0.114156693220139 -0.113117769360542 -0.0660888776183128 -0.0344241484999657 -0.107204146683216 -0.374196827411652 -0.256540179252625 -0.0573052689433098 0.0271067414432764 0.129001557826996 0.188826724886894 -0.255925476551056 -0.269192278385162 -0.250887960195541 -0.225534811615944 -0.324739724397659 -0.280656307935715 -0.263420939445496 -0.244794845581055 -0.220027342438698 -0.184974074363708 -0.175468519330025 -0.117790684103966 -0.0579727925360203 0.0687936320900917 -0.0413653403520584 -0.328358620405197 -0.270771235227585 -0.201487094163895 -0.114199809730053 -0.04407899081707 0.0567440576851368 0.202244877815247 0.75146895647049 0.25724333524704 0.327312886714935 0.35343125462532 0.431321650743484 0.476082563400269 0.644235789775848 0.815445005893707 1.04951751232147 1.07608592510223 1.42325520515442 1.02402317523956 0.88915091753006 0.237497970461845 0.167334109544754 0.323872208595276 0.443430781364441 1.05334961414337 1.19352865219116 1.28625798225403 1.32970952987671 1.37214303016663 1.42388486862183 1.47467994689941 1.53405487537384 1.63993036746979 1.98049581050873 2.06032085418701 2.15873527526855 2.26947927474976 2.38759255409241 2.51164078712463 2.65830731391907 2.81441497802734 3.00024390220642 2.63336420059204 3.04079461097717 3.30906987190247 5.09781789779663 6.73695373535156 10.0390958786011 19.0823554992676 4.93507099151611 5.32056045532227 10.9085807800293 18.8869686126709 5.76861333847046 5.97723722457886 6.41324758529663 6.66206979751587 6.39591026306152 6.54096937179565 6.72942876815796 6.91658592224121 7.10729694366455 7.30370807647705 7.41705131530762
10.2088136672974 10.9241352081299 11.8663959503174 12.8688793182373 14.0937604904175 15.5851402282715 17.416898727417 20.3274097442627 23.6078929901123 33.0880928039551 42.2441062927246 20.7842845916748 15.8619346618652 36.2762718200684 4.16894006729126 4.60776042938232 6.21526098251343 10.7336559295654 5.66385173797607 2.21753597259521 2.32272601127625 11.8296003341675 18.1260051727295 14.4074506759644 2.52198195457458 3.55013966560364 5.90276479721069 6.37741899490356 7.07618570327759 9.35443496704102 24.2895355224609 7.77706575393677 13.9229650497437 8.73438453674316 7.94634294509888 8.03275203704834 8.62090969085693 17.7154960632324 2.73705053329468 4.062903881073 5.15834331512451 8.88300514221191 20.1301040649414 10.549017906189 30.7733421325684 9.30042552947998 2.78463196754456 3.04371762275696 17.1190509796143 -3.57133293151855 -3.37580037117004 -2.76079177856445 1.10103392601013 14.0360622406006 30.4917240142822 -2.51600122451782 -1.82755935192108 2.86849880218506 14.4097080230713 0.478442132472992 17.9179344177246 35.7475395202637 2.86410713195801 3.68427038192749 -0.432908266782761 -0.60884016752243 26.1616554260254 44.4606781005859 -1.50353944301605 -1.33564209938049 0.0106013901531696 3.68293452262878 3.66893577575684 2.74261498451233 1.94359040260315 0.943792104721069 0.45953893661499 0.178438112139702 0.195697814226151 -0.204727217555046 -0.417492657899857 -0.332383632659912 -0.26866203546524 -0.172327473759651 0.0650370344519615 -0.0369752235710621 0.0435458645224571 0.195001155138016 0.226815730333328 0.1416305154562 -0.289706826210022 -0.182269811630249 -0.0368147157132626 0.0508120395243168 0.126617833971977 0.148242101073265 -0.396842986345291 -0.392036706209183 -0.372669786214828 -0.355264633893967 -0.621859908103943 -0.607071280479431 -0.579385221004486 -0.412775337696075 0.011174188926816 -0.579864680767059 -0.562444448471069 -0.459994047880173 -0.438874095678329 -0.433610320091248 -0.415258407592773 -0.395162105560303 -0.358705669641495 0.0717777758836746 0.103979557752609 0.148066386580467 0.186837807297707 0.205908566713333 0.171601161360741 0.125246062874794 0.152090474963188 0.154033780097961 0.161423966288567 0.291400641202927 0.457741975784302 0.690244913101196 0.704945921897888 0.717931389808655 0.853396356105804 0.714672029018402 0.71539705991745 0.730535566806793 0.778112769126892 1.01745295524597 1.15377914905548 1.30183553695679 1.43751454353333 1.53121078014374 1.58746576309204 1.63699674606323 1.69732785224915 1.77095973491669 1.8882178068161 0.675967037677765 0.714747428894043 1.52134537696838 1.64445233345032 1.79198634624481 1.9271000623703 2.11688280105591 2.355229139328 2.63538908958435 2.98855948448181 3.44063282012939 4.07056570053101 5.06908178329468 6.74447107315063 9.89502334594727 18.6849231719971 4.88773107528687 4.98017740249634 5.24661588668823 5.67055082321167 6.2854380607605 9.39435291290283 5.57047033309937 6.03707933425903 5.9843807220459 6.13329458236694 6.30493450164795 6.47101306915283 6.64811611175537 6.82959938049316 7.01903676986694
8.9708137512207 9.82515621185303 10.8590087890625 11.6892251968384 12.8337287902832 14.2347021102905 15.9179048538208 18.7573089599609 21.8081912994385 27.8537559509277 39.9381790161133 30.3110046386719 8.03069305419922 15.3553142547607 9.01251316070557 10.5055074691772 14.4343891143799 4.90481853485107 5.73653888702393 5.8388671875 4.09720897674561 4.60148620605469 16.7104015350342 9.44401836395264 2.60094118118286 2.69436526298523 4.43229866027832 8.06276321411133 11.8908061981201 8.17013072967529 21.730167388916 20.0646591186523 3.05358815193176 3.34754943847656 17.2666683197021 3.74251627922058 4.13132190704346 4.43876361846924 5.38999843597412 6.29692363739014 9.19584274291992 11.9162464141846 15.2569952011108 19.0933246612549 29.9842319488525 12.6000261306763 2.17673349380493 15.8640775680542 0.642196655273438 -3.41356945037842 1.51657605171204 -2.95506429672241 -2.58757472038269 4.19210529327393 1.09288620948792 -1.85597145557404 1.49404335021973 4.36551761627197 8.29599952697754 16.8453903198242 36.8509826660156 4.03941917419434 2.54041481018066 8.12838363647461 14.9929790496826 50.8309669494629 -1.75116312503815 -1.59567511081696 42.6399345397949 -1.4359815120697 -0.569072246551514 4.43071508407593 2.93587756156921 3.10743141174316 2.24244856834412 1.11658084392548 0.934601187705994 0.408506691455841 0.0288233961910009 -0.00375660392455757 -0.325308233499527 -0.277602225542068 -0.175859063863754 -0.0661336481571198 0.0259496662765741 0.176177337765694 0.234957188367844 0.35357391834259 0.538599193096161 0.63269567489624 0.448365449905396 -0.216317892074585 -0.162370234727859 -0.11907734721899 -0.0321975089609623 -0.0840385854244232 -0.145100235939026 -0.58079206943512 -0.645202219486237 -0.557148277759552 -0.638004422187805 -0.635473012924194 -0.563722848892212 -0.246185824275017 -0.505188703536987 -0.622695505619049 -0.605990588665009 -0.578835308551788 -0.558654606342316 -0.233399927616119 -0.49488952755928 -0.530677437782288 -0.499150395393372 -0.349509388208389 -0.0705342590808868 -0.0359376035630703 0.00730336783453822 0.0478571765124798 0.16435070335865 0.176714137196541 0.53074038028717 0.533282935619354 0.54963618516922 0.582760512828827 0.744519710540771 0.772393822669983 0.799664318561554 0.82624614238739 0.836182117462158 0.84796154499054 0.851204037666321 0.87991338968277 0.930869102478027 0.0163775961846113 0.0911743566393852 0.215484365820885 0.772879123687744 0.890344142913818 0.966772258281708 1.01826322078705 1.07048773765564 1.13326287269592 1.23332536220551 1.33452200889587 1.40745234489441 1.5043261051178 1.6183375120163 2.13876175880432 2.18193197250366 2.22904491424561 2.31082201004028 2.60115146636963 2.95170783996582 3.36625814437866 3.98658776283264 4.98998308181763 6.59286022186279 9.71260547637939 14.9569606781006 4.87587690353394 6.14756965637207 12.7172431945801 25.5580883026123 4.55025863647461 4.89946269989014 5.01170206069946 5.60861539840698 5.72781753540039 5.64462471008301 5.78600120544434 5.7591724395752 5.89626598358154 6.00858449935913 6.20788335800171
8.60400485992432 8.40965557098389 9.24996185302734 10.0934419631958 11.3295488357544 12.9244699478149 15.0096979141235 17.7998180389404 16.4343013763428 19.0757846832275 27.1172847747803 29.9983768463135 11.3661985397339 28.7605972290039 11.177773475647 14.3504076004028 14.4223937988281 4.20054578781128 9.11520576477051 2.26528358459473 2.63842439651489 2.71979522705078 3.33911299705505 5.81017208099365 16.556978225708 5.38938903808594 7.14387130737305 13.1794118881226 8.40282440185547 7.61624956130981 15.1965084075928 20.0450687408447 4.8847017288208 15.9510917663574 2.98757719993591 3.24148344993591 5.31393671035767 5.34863901138306 7.01807689666748 8.28870391845703 10.5875768661499 10.9635162353516 10.1616868972778 14.6088161468506 18.9837970733643 24.9575042724609 7.44230985641479 4.26998853683472 -2.95710182189941 -2.71744060516357 -2.60148739814758 -2.46431946754456 -2.24703884124756 1.3616464138031 26.512170791626 -1.70059645175934 7.1871976852417 12.627495765686 21.6411666870117 41.5403633117676 0.768927752971649 5.11357021331787 0.375817269086838 24.5657176971436 42.3410911560059 5.35021734237671 7.94572401046753 -0.752810180187225 0.851585388183594 46.3836364746094 -1.57249450683594 4.45036315917969 3.0187292098999 2.25455331802368 2.69210338592529 1.58414542675018 1.2325633764267 0.758735001087189 0.0990649685263634 0.207691475749016 -0.109255574643612 -0.168781355023384 -0.0529118999838829 0.101234599947929 0.181173950433731 0.284201830625534 0.457435369491577 0.540535390377045 0.681921184062958 0.981170058250427 0.77366316318512 0.188813060522079 -0.152347013354301 0.0226762276142836 -0.212219834327698 -0.199044570326805 -0.0801658779382706 -0.0528929680585861 -0.383482068777084 -0.708446025848389 -0.67720901966095 -0.66460907459259 -0.597633540630341 -0.236418828368187 -0.555823385715485 -0.692375183105469 -0.661226868629456 -0.642272770404816 -0.452692091464996 -0.308967441320419 -0.389587998390198 -0.279639393091202 -0.5836221575737 -0.492808520793915 -0.111148171126842 -0.088240459561348 -0.0529751367866993 -0.00739686610177159 0.0416725873947144 0.571531713008881 0.577074646949768 0.590303778648376 0.607091188430786 0.660573959350586 -0.0947832688689232 -0.0744350850582123 0.255706936120987 0.403247714042664 0.485949486494064 0.624213635921478 0.220243602991104 0.229958459734917 0.257812321186066 0.318647772073746 0.39519128203392 0.548829555511475 0.711034119129181 0.849598824977875 0.929366230964661 1.00065875053406 1.05361843109131 1.11118257045746 1.22786521911621 1.31647145748138 1.39402091503143 1.48468637466431 1.59866881370544 1.72503757476807 1.92153334617615 2.86345744132996 3.08173537254333 3.33199715614319 3.61804699897766 3.97093296051025 4.40059280395508 4.93084287643433 5.59250736236572 6.40862846374512 12.3185529708862 3.82563018798828 9.57710266113281 8.18664932250977 15.8410053253174 34.7182083129883 4.14218759536743 4.41591310501099 4.8344202041626 5.29754543304443 5.53058958053589 5.65095233917236 5.77950239181519 5.91208028793335 6.04734420776367 5.87075424194336
6.81088924407959 7.3184232711792 7.92796230316162 8.09763240814209 8.73838520050049 9.48118591308594 10.3596534729004 11.8889513015747 13.7468233108521 17.9133625030518 29.955114364624 21.3255214691162 11.5490522384644 23.8917560577393 12.505952835083 10.8675842285156 19.2092971801758 12.855149269104 2.27844429016113 2.51480197906494 2.52060270309448 2.6910605430603 3.17840790748596 4.73279666900635 11.4483528137207 5.21872329711914 7.37564516067505 8.89049816131592 10.897274017334 15.6633272171021 30.480318069458 45.6063385009766 8.58822536468506 3.60299825668335 3.08103108406067 2.95486855506897 12.2070331573486 4.65431213378906 5.57339954376221 5.92255687713623 7.49387454986572 8.89911460876465 10.9254531860352 12.7247486114502 9.26872730255127 8.65190315246582 7.94362306594849 -0.479175597429276 5.88012313842773 -1.52195453643799 -2.13284802436829 11.4631462097168 -1.84292411804199 -1.74051690101624 -1.0927460193634 7.42610311508179 3.65254378318787 24.3507041931152 45.2269744873047 -0.908533811569214 4.813157081604 21.6607513427734 38.1773109436035 18.7290649414062 -0.614019513130188 2.88433027267456 5.07343149185181 7.52763080596924 19.9776954650879 -1.80480456352234 21.7318859100342 -0.358736157417297 3.39499640464783 1.70705115795135 1.85047423839569 2.6623067855835 1.36739003658295 1.10617566108704 0.387129217386246 0.292780339717865 0.219125062227249 -0.00821327324956656 0.0566538721323013 0.173250362277031 0.267084777355194 0.459644794464111 0.625135600566864 0.699977576732635 0.84057205915451 0.662061750888824 0.661269545555115 0.243433311581612 0.340153098106384 0.0950078442692757 -0.295000106096268 -0.227908551692963 -0.193238973617554 -0.0681789144873619 -0.0604061707854271 -0.473936021327972 -0.660053968429565 -0.568498969078064 -0.517559468746185 -0.363675355911255 -0.516006827354431 -0.655621707439423 -0.60551130771637 -0.438605695962906 -0.120101869106293 -0.399372905492783 -0.342932879924774 -0.115061208605766 -0.621167719364166 -0.637364566326141 -0.588035821914673 -0.348157078027725 -0.316674321889877 -0.104760006070137 -0.0573751702904701 -0.0158365163952112 0.410050243139267 0.0296180229634047 0.0742654129862785 0.0932430773973465 0.107403934001923 0.12726429104805 0.163381993770599 0.22845496237278 0.393257915973663 0.506069719791412 0.618476927280426 0.150159165263176 0.184905648231506 0.251781165599823 0.35268560051918 0.490287154912949 0.653743207454681 0.798626601696014 0.894546091556549 1.06558561325073 1.70047283172607 1.7837438583374 1.90600872039795 2.00832748413086 2.11325454711914 2.22784161567688 2.36259651184082 2.50065064430237 2.66216564178467 1.97498202323914 2.89764833450317 3.10966205596924 3.33782887458801 3.54202604293823 3.96052384376526 4.42546892166138 4.93586683273315 5.58575868606567 6.50176477432251 7.70942449569702 8.46117877960205 16.362340927124 3.83978915214539 3.89796185493469 7.19034004211426 14.0506010055542 4.64566040039062 4.71973419189453 5.09266042709351 5.33116579055786 5.48084783554077 5.67055320739746 5.84920024871826 6.03141784667969
6.69816207885742 7.23052406311035 7.68750524520874 7.65211486816406 8.17223644256592 8.52587127685547 9.29024791717529 11.087459564209 11.1145439147949 12.8942193984985 15.2401885986328 21.3664302825928 27.3160972595215 13.0876188278198 10.6648721694946 15.5481958389282 17.5368003845215 13.4340963363647 2.75481367111206 11.4418802261353 2.81734895706177 3.67231130599976 4.88561105728149 5.72591304779053 8.02755641937256 10.127124786377 12.1689863204956 13.0288305282593 12.6740789413452 17.4223918914795 17.2499809265137 23.1233310699463 34.9907455444336 4.64052152633667 8.73804378509521 2.56136918067932 2.2516942024231 21.2366580963135 3.41143178939819 12.5810499191284 2.48132753372192 5.49298572540283 6.93435001373291 6.13529062271118 12.6307182312012 4.51269817352295 6.08566999435425 1.20872008800507 1.10192000865936 2.94926810264587 7.29928779602051 11.2815933227539 12.4343156814575 18.4522476196289 -1.730717420578 17.6492023468018 35.3353080749512 1.37052440643311 5.47166967391968 20.0668621063232 34.8192977905273 21.4706745147705 1.63780248165131 3.69228887557983 6.62124395370483 5.85751533508301 7.14498472213745 9.89503860473633 16.0882205963135 3.42273116111755 5.04978609085083 -1.60672557353973 3.46031832695007 2.04451394081116 1.6660008430481 2.16308307647705 3.23409795761108 1.35272705554962 0.820789158344269 0.885641098022461 0.184851601719856 0.150399342179298 0.175755590200424 0.201887100934982 0.240247085690498 0.557848334312439 0.699171781539917 0.972791850566864 1.22233641147614 0.724603474140167 0.240630701184273 0.335522383451462 0.54393994808197 0.0982590019702911 -0.0783558785915375 -0.219480231404305 -0.292097330093384 -0.173044592142105 -0.0353598855435848 -0.00139335857238621 -0.50469696521759 -0.514772951602936 -0.154047712683678 -0.335317492485046 -0.62317556142807 -0.429559618234634 -0.395634710788727 -0.206817224621773 0.16802217066288 -0.438817411661148 -0.335016965866089 -0.0479205958545208 -0.300442576408386 -0.297166496515274 -0.287749528884888 -0.263832539319992 -0.171799778938293 -0.126467108726501 -0.083891399204731 -0.0554472655057907 -0.0304332058876753 -0.0523009113967419 -0.0373657047748566 0.00576175097376108 0.0305161811411381 0.0522146970033646 0.076519176363945 0.0875543430447578 0.0989084765315056 0.258725821971893 0.655936658382416 0.689894795417786 0.714363813400269 0.78184449672699 0.910623788833618 1.04994130134583 1.19763016700745 1.35438144207001 1.46756374835968 1.56694769859314 1.24868941307068 1.72544920444489 1.82954239845276 1.92365217208862 2.02486371994019 2.13083934783936 2.24918532371521 2.37356472015381 2.52348494529724 2.68301248550415 2.31544518470764 2.3709545135498 2.54853343963623 2.63930869102478 2.93399500846863 3.23803043365479 3.70176148414612 4.44099807739258 4.65394353866577 3.57295298576355 3.73854279518127 4.65624523162842 4.66008472442627 9.15279197692871 4.4602632522583 4.50184869766235 4.70838594436646 6.42211866378784 4.91792821884155 5.44322443008423 5.61113357543945 5.79756212234497 5.99882793426514 6.20329475402832
6.19264841079712 6.68210792541504 6.96743535995483 7.38092660903931 7.09213542938232 7.33077812194824 7.94615888595581 8.67241764068604 9.54292488098145 10.5639057159424 13.6267642974854 17.9479389190674 24.5221900939941 33.0603256225586 7.37357139587402 16.2559947967529 4.62893056869507 10.0379104614258 3.91436886787415 4.40219068527222 3.80829524993896 16.8700313568115 3.19533371925354 4.86655330657959 5.55944108963013 6.47786855697632 7.60296058654785 9.06351375579834 11.3148136138916 11.8736114501953 13.7206716537476 18.1759796142578 31.6780586242676 8.42218971252441 12.7848062515259 17.3958721160889 0.565377175807953 0.684826850891113 4.16828584671021 5.08920431137085 6.30695152282715 11.1177577972412 13.240195274353 6.78753614425659 31.7031345367432 10.9252071380615 26.0473880767822 1.24686765670776 1.32786333560944 14.3751964569092 0.587292313575745 13.4219055175781 17.7295436859131 25.5697116851807 45.4117050170898 -1.10578978061676 -0.355250358581543 4.2696967124939 48.0788269042969 1.24244344234467 5.01375913619995 0.150769680738449 9.04778289794922 3.57630181312561 0.792144596576691 7.00197410583496 7.10833835601807 11.9324855804443 14.8654813766479 2.46721029281616 -0.386724889278412 11.9463109970093 -1.53430950641632 2.66376543045044 1.91207301616669 2.03106188774109 2.73828077316284 3.57789921760559 1.2087436914444 1.24644947052002 0.607525944709778 0.655660450458527 0.875514268875122 0.924672663211823 0.584616601467133 0.404842466115952 0.589974284172058 0.703328430652618 0.904965758323669 0.969848871231079 0.212786734104156 0.143133148550987 0.298544853925705 0.138686716556549 0.190151765942574 -0.192337408661842 -0.480072528123856 -0.276565879583359 -0.124951280653477 0.00933003798127174 0.0789296180009842 -0.40443155169487 -0.28340956568718 -0.319308042526245 -0.470360666513443 -0.137225061655045 0.00355625175870955 0.0839907750487328 0.369726657867432 -0.39528751373291 -0.306959420442581 -0.200533539056778 -0.332804054021835 -0.354483991861343 -0.351626992225647 -0.331905364990234 -0.30298039317131 -0.253080189228058 -0.204987660050392 -0.172535046935081 -0.136303320527077 0.344746291637421 1.77080452442169 0.369934022426605 0.45178434252739 0.462664127349854 0.501718699932098 0.517693340778351 0.536543369293213 0.56301337480545 0.261702328920364 0.622537434101105 0.646727323532104 0.706760048866272 0.818701863288879 0.946903347969055 1.0798841714859 1.22316491603851 1.34531378746033 1.47565507888794 1.60970830917358 1.28017139434814 1.61723244190216 1.77519524097443 2.02061891555786 2.06386399269104 2.1084566116333 2.15516495704651 2.20533394813538 2.30535936355591 2.3585479259491 2.41364145278931 2.51698184013367 2.78150963783264 3.03601956367493 3.10696744918823 3.17688822746277 3.26297235488892 4.10731649398804 4.19268941879272 4.28489685058594 4.37307405471802 4.47466802597046 4.57863235473633 4.7729229927063 4.99812078475952 5.12079763412476 5.23827648162842 5.37609910964966 5.59526968002319 5.72663164138794 5.86368274688721 6.01289510726929 6.16253662109375
5.3366117477417 5.76912975311279 5.9848747253418 6.35062694549561 6.2197208404541 6.64241743087769 6.92148590087891 7.9179310798645 9.20345783233643 10.9336700439453 10.1313409805298 12.0613870620728 21.4725608825684 9.38022708892822 9.72121715545654 8.70006370544434 7.21266317367554 7.66189765930176 6.03537559509277 11.6460952758789 25.4446086883545 2.67588710784912 4.06843709945679 4.56035566329956 4.857497215271 5.31819772720337 5.95477151870728 6.80930709838867 7.97853326797485 9.48417282104492 11.5876560211182 17.8197898864746 32.8638534545898 2.1231541633606 3.34058523178101 7.87681150436401 9.28540992736816 2.12074732780457 3.17945551872253 6.79624366760254 9.54274845123291 10.9624376296997 12.9129238128662 13.1363077163696 8.04387855529785 9.38078022003174 6.510413646698 7.2367992401123 17.2234439849854 22.5100955963135 31.6962509155273 50.7967834472656 -1.0610818862915 -0.901842772960663 2.46011734008789 6.46666383743286 50.3316688537598 0.591022610664368 0.431591480970383 1.51365482807159 -0.235274359583855 8.36686706542969 1.80431628227234 -0.161138713359833 1.22538816928864 6.69488286972046 19.1661758422852 6.80707836151123 -0.786608934402466 2.38034391403198 7.25321483612061 0.622924208641052 3.21910262107849 -1.48858714103699 2.2857780456543 2.12401223182678 2.34734654426575 2.86367654800415 2.90359330177307 1.04714262485504 1.17032670974731 1.33014178276062 1.54753112792969 1.70414865016937 1.56955361366272 0.919838190078735 0.426226675510406 0.573402583599091 0.512906193733215 0.588727951049805 0.580395936965942 0.139362901449203 0.0250075981020927 0.102056577801704 0.317122459411621 -0.269681185483932 -0.485400795936584 -0.410087794065475 -0.136552304029465 0.0852042734622955 0.225115045905113 0.26917576789856 -0.1880754083395 -0.559003055095673 -0.308666914701462 -0.0277271512895823 0.188202902674675 0.352146446704865 0.487636417150497 -0.228605225682259 -0.168049499392509 -0.244236975908279 -0.154156997799873 -0.172502741217613 -0.420952796936035 -0.409819096326828 0.0241232551634312 0.0778769925236702 0.117729634046555 0.156886175274849 0.210409998893738 0.0332706943154335 0.69059431552887 0.307160377502441 0.366609483957291 0.403883814811707 0.434651225805283 0.432536870241165 0.460078716278076 0.472827315330505 0.512662291526794 0.2798892557621 0.0886556506156921 0.135880559682846 0.22449317574501 0.318579763174057 0.413693130016327 0.526825785636902 0.648386299610138 0.790156900882721 0.487333506345749 0.587200045585632 0.743881285190582 1.19822561740875 2.04849863052368 2.10368323326111 2.15057301521301 2.19722628593445 2.24744915962219 1.81845355033875 2.30111956596375 2.81379222869873 2.87013649940491 3.1886510848999 3.71269512176514 3.79064583778381 3.87457990646362 3.96260547637939 4.05231809616089 4.26489782333374 4.47341680526733 4.56529521942139 4.66396808624268 4.78044319152832 4.98997497558594 5.09644460678101 5.20626401901245 5.41123962402344 5.55101251602173 5.69353675842285 5.83406639099121 5.98825073242188 6.13747358322144 6.34877967834473
3.95077729225159 4.27368354797363 4.38443660736084 4.66675996780396 4.43527936935425 4.6428074836731 4.82782030105591 5.14442539215088 4.67328214645386 5.0606575012207 5.60622024536133 6.71213293075562 7.62873601913452 9.043212890625 11.6699514389038 15.747540473938 24.2826080322266 3.20613741874695 9.18924808502197 13.5571031570435 23.1997928619385 3.31927394866943 4.44337844848633 2.9329400062561 2.99493908882141 3.41366624832153 4.00651884078979 4.90691995620728 6.36939382553101 7.13705730438232 10.4071378707886 16.3563385009766 30.9400825500488 2.47762584686279 3.25206232070923 3.50195550918579 3.49286961555481 3.71691608428955 5.63965225219727 6.07636737823486 6.53717470169067 7.21131038665771 17.1970272064209 22.3890991210938 31.7161293029785 50.7122917175293 3.79783797264099 1.30996918678284 4.31012868881226 8.47433376312256 0.586847960948944 5.72410726547241 1.31912267208099 5.52611780166626 50.2904968261719 1.41307282447815 3.04377579689026 6.46188497543335 7.46039819717407 -0.518324792385101 4.66713285446167 0.0876763388514519 0.989361107349396 -0.451388984918594 0.692635774612427 1.39825963973999 4.34761428833008 0.161402404308319 -0.0743593871593475 -0.0719819590449333 1.56109595298767 1.14379632472992 3.19827318191528 5.55224895477295 -1.40578460693359 2.27216076850891 2.05119943618774 2.18100690841675 2.75245499610901 1.83677339553833 1.54137766361237 1.83568167686462 2.04511761665344 2.24275541305542 2.42856192588806 2.18906164169312 0.917270660400391 0.519565105438232 0.543926239013672 0.261034369468689 0.406853884458542 0.161615505814552 -0.115389056503773 0.0139335859566927 0.0167612843215466 -0.280568271875381 -0.401213735342026 -0.367245525121689 -0.245294496417046 -0.0305924136191607 0.105530858039856 0.197378024458885 0.134745717048645 -0.377488523721695 -0.331175118684769 0.0436619743704796 0.20250515639782 0.41903829574585 0.678315401077271 0.181764379143715 -0.0553928166627884 -0.189896777272224 -0.0105594722554088 -0.0322248302400112 -0.329634964466095 -0.598170340061188 -0.589650511741638 0.0103583736345172 0.0372377783060074 0.0655447319149971 0.119487531483173 0.182834163308144 2.11515426635742 -0.165966302156448 0.0364185646176338 -0.20939727127552 0.889055371284485 2.4312481880188 -0.178025871515274 -0.0963651388883591 -0.270974636077881 -0.246357187628746 -0.190301299095154 -0.159942582249641 -0.089970774948597 -0.0242215301841497 0.0559463798999786 0.146855652332306 0.2533218562603 0.394269615411758 0.5099076628685 0.615326046943665 0.887046694755554 1.29458093643188 1.60800278186798 2.048344373703 2.09534478187561 2.40424370765686 2.45233559608459 2.49726343154907 2.55239629745483 2.97505068778992 3.14006543159485 3.20384550094604 3.2756667137146 3.80310559272766 3.88364839553833 3.96800398826599 4.05688667297363 4.14865207672119 4.48810052871704 4.58596038818359 4.84020137786865 4.94380617141724 5.05794239044189 5.16509628295898 5.27767562866211 5.39690637588501 5.53421306610107 5.6392617225647 5.77355146408081 5.91271781921387 6.05745840072632 6.20854759216309
3.04845547676086 3.12074303627014 3.22063541412354 3.39282035827637 3.59126257896423 3.80198860168457 4.0522894859314 3.64813089370728 4.04946517944336 4.54705142974854 5.20285320281982 6.06873750686646 7.24244403839111 5.94298410415649 6.70112276077271 7.56452798843384 8.40335178375244 4.03072643280029 4.27440786361694 5.29357242584229 9.65832233428955 12.0239095687866 15.3672151565552 20.1626071929932 1.5571551322937 2.31389808654785 3.12010908126831 4.09075593948364 5.40962171554565 3.20680332183838 3.4500904083252 3.64573836326599 4.74576854705811 5.34300518035889 6.10267734527588 6.87012529373169 7.61501979827881 8.3808536529541 9.30716419219971 10.4134912490845 11.9215049743652 14.3964138031006 15.3591661453247 19.5529594421387 27.9825706481934 46.5234870910645 0.960349440574646 5.77754402160645 6.30217981338501 5.62629222869873 2.41152238845825 0.906925082206726 50.9237098693848 1.09454131126404 1.07320320606232 0.448871344327927 1.26492989063263 5.87118005752563 7.82758045196533 8.09034824371338 -0.0226270500570536 -0.591740608215332 -0.542374670505524 -0.390928953886032 7.18911123275757 -0.156492903828621 -0.341959416866302 2.51184177398682 -0.260148853063583 0.415685296058655 1.02725970745087 3.02316188812256 -1.26139676570892 -1.090052485466 -1.08120107650757 2.27366924285889 2.0956871509552 2.10166692733765 2.24459671974182 3.13806247711182 1.93758344650269 2.14292669296265 2.49142360687256 2.64513611793518 2.89823174476624 2.90788531303406 2.19649577140808 1.29609417915344 0.273157685995102 0.334388613700867 -0.0221707932651043 -0.055283535271883 -0.140052750706673 0.00260913232341409 -0.262769192457199 -0.154197975993156 -0.338943183422089 -0.299355030059814 -0.237814679741859 -0.163551852107048 0.305426090955734 0.487108260393143 0.708206713199615 1.46218991279602 -0.364394336938858 0.0394648276269436 0.213220447301865 0.389938592910767 0.600652158260345 0.484959185123444 0.209453642368317 -0.0201854854822159 0.198962613940239 0.0224849823862314 -0.208415478467941 -0.476172894239426 -0.429795384407043 -0.39171090722084 -0.373410403728485 -0.356262415647507 -0.338609457015991 0.346778124570847 1.92523813247681 -0.122838489711285 0.0296156983822584 0.688982605934143 -0.491916835308075 -0.181737065315247 -0.424284636974335 -0.409764319658279 -0.384429812431335 -0.359422445297241 -0.435002714395523 -0.401458472013474 -0.361375272274017 -0.492013096809387 -0.42355665564537 -0.333507984876633 -0.270750880241394 -0.191914826631546 -0.114995643496513 -0.0570816993713379 0.895394146442413 1.40442514419556 2.03088688850403 2.11019110679626 2.1611180305481 2.23654890060425 3.38079023361206 2.41422486305237 2.53769016265869 3.2518298625946 3.5088586807251 3.59778642654419 3.68373775482178 3.76977682113647 3.85543298721313 3.78566026687622 4.06991052627563 4.15714502334595 4.24520683288574 4.33645439147949 4.68443775177002 4.78363037109375 5.02575159072876 5.13141870498657 5.8732705116272 6.01995754241943 6.18061923980713 6.33596992492676 6.49844646453857 6.66684865951538 6.84386539459229 7.03109455108643
2.8153862953186 2.82811379432678 2.89437890052795 2.85047912597656 2.82714033126831 2.99440979957581 3.18708682060242 2.42823815345764 2.52178430557251 2.62865281105042 4.02684497833252 4.34208345413208 4.70773363113403 5.11964082717896 5.58394813537598 6.10543394088745 6.70254516601562 7.26927947998047 8.03207588195801 9.06666469573975 7.16865205764771 9.23816967010498 12.7765007019043 3.42353272438049 2.50320053100586 2.39967012405396 2.70789074897766 3.0779230594635 3.43202543258667 3.76966762542725 3.99347496032715 4.42901563644409 4.93783950805664 4.71407890319824 5.20044374465942 5.73641347885132 6.32597637176514 7.01808595657349 7.82922124862671 8.83526611328125 10.2572660446167 14.4057474136353 18.9747734069824 27.3354473114014 45.9692192077637 3.35794258117676 20.3593559265137 29.3353118896484 7.7923731803894 0.250639647245407 39.6482238769531 22.0060348510742 0.777944982051849 9.4503059387207 1.19169020652771 2.73919677734375 1.12377846240997 3.07972168922424 0.571117222309113 1.67470514774323 3.94264459609985 7.73715209960938 0.209915816783905 2.91063213348389 -0.0318204425275326 0.893530786037445 4.37286758422852 0.0735851526260376 0.851728081703186 4.52385711669922 2.79860138893127 6.4800009727478 3.32949161529541 -0.548939168453217 -1.37139630317688 -0.889680981636047 2.21568489074707 2.23000764846802 2.23786163330078 2.34529638290405 2.87852215766907 2.28189969062805 2.71134209632874 2.93955636024475 14.6725635528564 18.4412784576416 25.2883338928223 41.6217956542969 -1.83940100669861 -1.70135712623596 -0.102211393415928 -0.0705831423401833 0.00271841534413397 -0.389179021120071 -0.386704474687576 -0.378728747367859 -0.328522831201553 -0.27849954366684 -0.232840269804001 -0.165609747171402 -0.10704892873764 -0.088068813085556 -0.0616654679179192 0.134322255849838 -0.0551151931285858 0.141056776046753 0.154921978712082 0.353563666343689 0.464067041873932 0.494848549365997 0.389137208461761 0.31602281332016 0.488469630479813 0.133748516440392 -0.372171759605408 -0.824466466903687 -0.656416177749634 -0.289686352014542 0.00952128320932388 -0.57756769657135 -0.136033207178116 1.63492202758789 2.83615756034851 0.294883996248245 12.4807777404785 16.4881858825684 24.4512672424316 42.1456298828125 -1.94955897331238 -0.784542202949524 -0.759175598621368 -0.73471200466156 -0.711318492889404 0.0395795740187168 0.345751821994781 1.54247546195984 7.60146236419678 -0.677888810634613 -0.383961468935013 -0.3192018866539 -0.233860805630684 -0.150755047798157 0.670130372047424 0.897412598133087 2.17135691642761 2.240065574646 2.30704069137573 2.34318017959595 2.36407423019409 2.90256810188293 2.95973801612854 3.037761926651 3.14368295669556 3.25892090797424 3.28772330284119 3.58177876472473 12.1498289108276 15.9946765899658 23.268762588501 40.6604766845703 6.66310977935791 6.85742616653442 4.01735591888428 4.2559700012207 5.59303665161133 5.72182941436768 5.61995315551758 5.7744140625 5.91879320144653 6.07957172393799 6.23876047134399 6.41696691513062 6.6268253326416 6.84346675872803
2.27091360092163 2.53511428833008 2.63128876686096 2.74252367019653 2.86278748512268 2.99408626556396 3.14582347869873 3.32117342948914 3.51687479019165 3.74656915664673 2.71325612068176 2.93301367759705 3.18247199058533 3.45279121398926 3.78410625457764 4.17058753967285 4.61930894851685 5.11689472198486 5.80640840530396 6.15608549118042 11.576807975769 14.1378364562988 18.5722370147705 30.8737525939941 0.846493780612946 2.20161080360413 1.95783150196075 2.23026204109192 2.57472157478333 2.81050109863281 3.2560293674469 3.91308760643005 4.33797883987427 4.8068642616272 5.32634305953979 5.89387035369873 6.56829929351807 7.4009256362915 8.39355278015137 9.7332935333252 11.6430187225342 9.26600742340088 10.7437982559204 14.836446762085 19.6018943786621 22.3923416137695 19.2168617248535 4.55038356781006 50.9949150085449 0.194456964731216 1.37727725505829 2.64875674247742 4.05345439910889 6.68683385848999 -0.0584657229483128 1.15987026691437 2.1505913734436 4.31585025787354 1.54203903675079 2.98400163650513 4.40230178833008 0.962656557559967 1.08726060390472 3.66305232048035 3.23503708839417 8.88173389434814 6.37012386322021 8.10829067230225 21.334623336792 4.52278709411621 1.95915067195892 1.06224858760834 5.83791971206665 4.79851388931274 0.629027426242828 1.12836873531342 2.10794949531555 6.82112455368042 7.27953672409058 7.84596395492554 8.57538318634033 9.50198364257812 10.502495765686 12.2297992706299 10.1691904067993 9.76543045043945 16.3572311401367 2.39339685440063 -0.775649905204773 -0.353512436151505 -0.430200964212418 -0.321461766958237 -0.254716575145721 -0.246513664722443 -0.382372468709946 -0.369001626968384 -0.347452461719513 -0.291527301073074 -0.237230196595192 -0.155468434095383 -0.0847019255161285 -0.0316668264567852 0.000794102845247835 0.167753517627716 0.349209576845169 0.371051669120789 0.159624516963959 0.285803467035294 0.294132679700851 0.362408429384232 0.366471081972122 0.368818283081055 0.441918134689331 0.0223574843257666 3.07297968864441 3.29152369499207 3.56045246124268 3.90821123123169 4.36726140975952 4.96823215484619 5.86136198043823 7.29183721542358 8.09604072570801 9.1900053024292 13.3121662139893 17.0291500091553 25.1881294250488 43.5487785339355 -2.1033091545105 -0.880477428436279 -0.84507554769516 -0.745791792869568 2.3054096698761 3.32358551025391 5.04371118545532 12.6143388748169 -0.986911177635193 -0.878980576992035 -0.526901721954346 -0.442774504423141 -0.375869691371918 -0.294842720031738 0.415737360715866 0.624632239341736 1.40530335903168 1.63939356803894 3.0570330619812 3.36905598640442 3.76141095161438 3.94523429870605 4.29901790618896 7.54631757736206 10.8306674957275 17.5654296875 33.6294212341309 3.30921125411987 22.4831581115723 5.81627941131592 7.85077047348022 10.6924057006836 12.930380821228 8.95849704742432 3.75059795379639 3.91828870773315 3.9821195602417 4.12723588943481 5.63784694671631 5.78926467895508 5.93020868301392 6.08339023590088 6.24051523208618 6.40324401855469 6.59439134597778 6.79298162460327
2.5391845703125 1.78853976726532 1.8660843372345 1.92082440853119 2.16115617752075 2.24086761474609 2.2858452796936 2.33979463577271 2.39605379104614 2.53587126731873 4.01677083969116 4.32078218460083 4.67552947998047 5.08010387420654 5.53990745544434 6.0924129486084 6.70686054229736 7.50004959106445 8.58406066894531 10.028715133667 5.289391040802 5.08737134933472 4.20163488388062 4.51708030700684 4.99162101745605 5.10905742645264 2.31131792068481 2.37110805511475 2.6018431186676 2.83732295036316 3.29910802841187 3.78571772575378 4.1490421295166 4.47920751571655 4.81770420074463 4.96741151809692 5.45479440689087 6.00450038909912 6.64281272888184 7.48811101913452 8.58683681488037 17.5614490509033 22.9135112762451 32.3849792480469 51.7272415161133 -0.0931175500154495 50.6784400939941 0.289937853813171 1.48504793643951 3.07684779167175 3.93756246566772 2.16574430465698 1.85284042358398 0.329062521457672 0.483636528253555 0.615462064743042 4.35059309005737 5.15449953079224 6.70180177688599 1.56269359588623 1.54862070083618 2.08522868156433 2.52592754364014 3.24410963058472 3.51095938682556 4.48636198043823 8.85119915008545 11.2368850708008 19.7938747406006 1.14401745796204 0.897184014320374 1.95840978622437 7.80375814437866 11.2533779144287 20.6009540557861 -1.2716189622879 -1.18588674068451 -0.843676388263702 4.10686874389648 4.33508968353271 4.62616634368896 5.10499715805054 6.72571897506714 7.95579481124878 10.7065629959106 18.0983257293701 13.5263557434082 16.8193206787109 19.7535915374756 45.5541915893555 -2.16167759895325 -1.88198494911194 -0.420536726713181 -0.412174075841904 -0.40693536400795 -0.387796640396118 -0.346470385789871 -0.309305965900421 -0.233513370156288 -0.147822543978691 -0.105313956737518 -0.0442658774554729 0.00686434004455805 0.257255077362061 0.603172242641449 1.89224600791931 1.93742775917053 2.0209493637085 2.09499502182007 2.20121431350708 2.31325221061707 2.44762563705444 2.60802578926086 2.77481842041016 3.47086405754089 3.68164396286011 3.96508860588074 4.31827640533447 4.79005861282349 5.47368717193604 6.47261428833008 7.99892616271973 21.5528869628906 27.0625438690186 36.9209022521973 55.8603477478027 -2.89488124847412 -2.10683727264404 -2.04701113700867 -0.11978692561388 0.265576720237732 0.696149945259094 8.67427635192871 11.5319776535034 17.2247142791748 34.6277770996094 -1.62554264068604 0.142111167311668 1.0399649143219 1.51465654373169 2.26950860023499 1.64427471160889 2.17018294334412 2.41736698150635 2.64602828025818 2.83791279792786 3.01407933235168 3.12228584289551 3.23457431793213 3.56473278999329 4.60002279281616 5.27077007293701 12.3215913772583 5.997633934021 19.0212516784668 3.92254161834717 7.05317831039429 10.4935998916626 10.9947519302368 12.2354164123535 22.0585079193115 4.95464134216309 7.02376079559326 11.2435989379883 4.15919351577759 4.79648971557617 5.90002202987671 6.05656242370605 6.20379114151001 6.36286640167236 6.53223323822021 6.70523071289062 6.88202714920044 7.06922721862793
2.02733826637268 2.58163189888 2.69588327407837 2.81614184379578 2.92868232727051 3.05819439888 3.20786333084106 3.38097357749939 3.53068232536316 3.73242378234863 2.21570825576782 2.3548800945282 2.19034361839294 2.30877995491028 2.47893214225769 2.66672372817993 2.83302855491638 3.06040620803833 3.37964010238647 3.7816698551178 4.25034809112549 4.66380786895752 4.25688028335571 4.26913738250732 4.63863611221313 5.23861598968506 2.91524291038513 2.30347466468811 2.4039478302002 2.51868987083435 2.94769310951233 4.66176414489746 5.2974271774292 5.83838367462158 6.43468236923218 7.10760736465454 7.93446063995361 8.89318370819092 10.1134223937988 11.7846994400024 14.0547332763672 17.002815246582 22.2549209594727 31.4929885864258 50.8181915283203 0.429097235202789 0.232650637626648 0.862695395946503 10.4301748275757 3.9632511138916 4.42635345458984 6.09343862533569 10.5353221893311 0.0461143217980862 0.0915353745222092 0.365519315004349 0.544869780540466 4.86674880981445 2.08833169937134 6.22973537445068 2.46449756622314 2.70544219017029 3.18464112281799 4.22419357299805 6.98256158828735 7.15510129928589 10.7789449691772 8.40818023681641 3.73427867889404 3.9177086353302 5.50222969055176 5.13949775695801 10.521411895752 22.4727058410645 3.42362403869629 7.60037803649902 1.54512357711792 5.05764770507812 2.90371513366699 8.07466125488281 8.66054725646973 9.32987499237061 14.1816158294678 17.7271060943604 24.454704284668 28.5479335784912 8.06578636169434 9.87654113769531 21.1798419952393 43.525463104248 -2.2085165977478 -1.72629404067993 -2.04107689857483 -0.437248826026917 -0.412116140127182 1.04572033882141 1.11181509494781 1.18813073635101 1.26134407520294 1.3434978723526 1.3956104516983 1.46922540664673 1.5510630607605 1.64737379550934 1.72696721553802 2.14628672599792 2.1961350440979 2.26675724983215 2.34012031555176 2.46227645874023 2.60031914710999 2.79140663146973 6.06406497955322 6.45423269271851 6.93703508377075 7.52788877487183 8.19750499725342 9.03514194488525 10.119194984436 11.7297410964966 14.0059976577759 17.2480697631836 9.65777015686035 13.4956836700439 17.0594711303711 23.866382598877 26.138916015625 -1.77074337005615 -1.04111909866333 3.52849173545837 4.46556091308594 5.65907144546509 2.73502063751221 3.63261580467224 6.16940975189209 15.0865669250488 0.186789557337761 0.788351953029633 0.9678715467453 1.12586486339569 2.79355835914612 4.50877618789673 6.37321710586548 19.9753189086914 0.887784540653229 2.39605331420898 2.48888325691223 2.56585621833801 12.5269632339478 16.6363105773926 25.3340435028076 44.9571914672852 1.45629107952118 1.87534999847412 2.33930826187134 6.69712257385254 11.6112089157104 25.9682559967041 6.52713108062744 12.7772569656372 4.69209814071655 3.87512421607971 3.92560195922852 4.15418243408203 4.39483165740967 4.55239152908325 5.84633827209473 5.99292612075806 6.13319301605225 6.29521179199219 6.46538543701172 6.64051485061646 6.81997776031494 7.00184392929077
2.34561944007874 1.67964577674866 1.7233464717865 1.76384353637695 1.72539937496185 1.75940847396851 1.80750346183777 1.99467599391937 2.062908411026 2.10541391372681 2.14216780662537 2.19251346588135 2.24483942985535 2.29831433296204 2.35734248161316 2.4193000793457 2.45839715003967 2.63047528266907 2.86956214904785 3.23787951469421 3.68201041221619 4.17359447479248 4.39581203460693 4.5766224861145 4.67019414901733 4.95475769042969 3.42560315132141 4.17582178115845 3.02926278114319 3.19526743888855 3.66231274604797 4.29218482971191 5.00269222259521 5.56640434265137 6.17600440979004 6.83647537231445 7.63437032699585 17.597562789917 22.955358505249 32.6642074584961 52.1679649353027 0.0361168794333935 51.1783561706543 0.310519814491272 1.58749783039093 6.18910932540894 12.2324495315552 0.499749422073364 0.970968425273895 7.1065502166748 14.9853010177612 9.20061492919922 4.86202383041382 0.634949386119843 0.281678855419159 0.289111286401749 1.0498183965683 1.80839848518372 1.91278493404388 1.98579490184784 2.02871680259705 1.84658741950989 2.76223254203796 3.20837569236755 3.82085108757019 8.96041870117188 7.94955635070801 3.9604172706604 5.91143226623535 8.70008945465088 13.7804841995239 2.85033226013184 4.9344654083252 1.60752630233765 1.64370489120483 1.85381770133972 2.47527122497559 5.80251121520996 8.81346321105957 2.96032857894897 10.3110589981079 11.8810939788818 14.9901323318481 20.9885025024414 35.1888847351074 8.79674243927002 13.4997653961182 12.5340967178345 19.9366207122803 25.5939559936523 34.9871635437012 54.3700866699219 -1.32588481903076 0.323314785957336 0.917415797710419 1.20396983623505 1.2587468624115 1.34588897228241 1.43855583667755 1.52759754657745 1.59177815914154 1.65213692188263 1.73329603672028 3.60642290115356 3.79575562477112 3.98419713973999 4.15665721893311 4.32070636749268 4.51017951965332 4.7752571105957 5.09389543533325 5.43891906738281 2.95310568809509 3.7624089717865 4.03930711746216 4.36812496185303 4.67461585998535 5.05183792114258 5.51973867416382 6.42180156707764 7.75625419616699 9.54700756072998 10.684045791626 9.85494709014893 12.2695693969727 17.0237693786621 28.8656406402588 -0.931016445159912 -0.880312025547028 0.207567229866982 0.5915846824646 1.09169518947601 0.36038476228714 0.374507457017899 0.420452058315277 0.795283496379852 0.498899757862091 0.580827713012695 2.09328246116638 2.25282859802246 8.4340181350708 11.1584529876709 18.0620861053467 36.9651145935059 -0.241293624043465 5.5313572883606 6.52352285385132 13.8396100997925 17.9149169921875 26.3515739440918 46.1367683410645 0.573059260845184 0.895751416683197 1.3427699804306 1.42772126197815 3.95953631401062 13.3451652526855 14.7021207809448 16.2027435302734 3.25411987304688 3.27599883079529 3.79107809066772 3.84017300605774 4.40369510650635 3.90565824508667 4.96306371688843 5.0843391418457 6.06650352478027 6.20727872848511 6.37400579452515 6.53942012786865 6.71110010147095 6.8852858543396 7.06545972824097
1.53887915611267 1.60282242298126 1.78107869625092 1.82083177566528 1.85787844657898 1.89682042598724 1.93938100337982 1.88814473152161 1.93581509590149 1.99193465709686 2.04802083969116 2.09869337081909 2.47606348991394 2.53936958312988 2.60253357887268 2.67167043685913 2.75464749336243 2.84031748771667 2.93054103851318 3.03592562675476 3.37768650054932 3.87915349006653 4.29330921173096 4.81073570251465 4.93292093276978 5.58622455596924 2.9897141456604 4.13955497741699 4.26665735244751 4.37799072265625 4.8841118812561 6.0164680480957 7.26951503753662 8.70224666595459 10.0636987686157 11.7418556213379 14.037956237793 11.4514083862305 16.4187450408936 21.5121383666992 30.6966094970703 49.2906227111816 2.34993982315063 6.78009939193726 0.917799174785614 11.1056652069092 0.163092657923698 2.3386127948761 4.38096714019775 6.2529091835022 7.58986616134644 23.490909576416 0.285624831914902 5.19930696487427 0.563772261142731 3.35070753097534 2.32589530944824 1.03277015686035 7.77469110488892 1.57295966148376 1.76787090301514 3.08942151069641 5.5628662109375 6.01491975784302 2.4837589263916 9.53733062744141 8.54281806945801 3.29947185516357 4.74215602874756 6.65537309646606 8.8401403427124 9.19877910614014 11.4609727859497 4.50602960586548 3.42170333862305 1.99746823310852 1.95744073390961 15.2697639465332 4.3010311126709 5.22090196609497 4.87315845489502 10.196665763855 11.0517482757568 13.7864198684692 19.0865612030029 31.9854145050049 16.5013751983643 34.8107414245605 49.7628936767578 -0.623311817646027 37.7114486694336 9.22995281219482 17.4351081848145 48.6037902832031 0.175068274140358 2.38650465011597 2.49068236351013 2.61948680877686 2.76388239860535 2.91001081466675 3.04396629333496 3.16262888908386 3.29709601402283 1.76221907138824 2.21680092811584 2.32493424415588 2.43112945556641 2.52175307273865 2.65252590179443 2.78815460205078 2.89917516708374 3.08649873733521 3.30420351028442 2.70590662956238 2.91897201538086 3.17103314399719 3.36560964584351 3.61730098724365 3.91526937484741 4.55295276641846 5.67265462875366 7.18600225448608 7.89028406143188 9.22020530700684 11.3588991165161 15.684362411499 27.1479835510254 -0.88147896528244 -0.737600922584534 0.694559514522552 1.44811105728149 1.64842844009399 1.84707593917847 2.05445694923401 2.31556153297424 2.71457982063293 3.02794456481934 3.74477672576904 5.92216730117798 11.4366655349731 2.09864664077759 3.15919828414917 3.95983123779297 5.19770574569702 6.23730659484863 7.18009805679321 14.4308471679688 19.2112102508545 27.7320671081543 46.9658317565918 -0.677176773548126 1.47367799282074 10.3388109207153 14.4711742401123 21.2294578552246 40.2540092468262 2.15953063964844 3.35048627853394 11.8615121841431 15.8166351318359 8.62701225280762 3.43962287902832 3.95978140830994 4.06204128265381 7.51340579986572 4.21638917922974 5.44915533065796 5.94050216674805 6.07989931106567 6.18116617202759 6.34700298309326 9.08731174468994 17.5999050140381 6.36928176879883
1.44163477420807 1.48008632659912 1.65478920936584 1.9149044752121 1.96721911430359 2.01880836486816 2.07470202445984 2.1349458694458 2.19764804840088 2.25833106040955 2.31693196296692 2.38717532157898 2.3801486492157 2.45049595832825 2.51720499992371 2.58948707580566 2.66283226013184 2.75492596626282 3.47578907012939 3.62392091751099 3.75801968574524 3.9111156463623 4.19750785827637 5.3873815536499 7.03681993484497 4.04947376251221 4.08956575393677 4.81345891952515 5.72829627990723 7.13414907455444 15.5661497116089 3.16480374336243 4.72401857376099 6.12792110443115 7.84232521057129 9.27879619598389 10.8396530151367 15.0360460281372 19.7968158721924 28.4729824066162 47.5386810302734 2.37838172912598 1.68846797943115 8.58322525024414 1.66070234775543 2.48895382881165 2.59800386428833 0.268801242113113 11.5001497268677 3.17027807235718 6.38108015060425 3.4853892326355 8.2462854385376 9.6828498840332 1.11073100566864 2.12323546409607 1.17783761024475 2.1049964427948 1.65139925479889 1.72336363792419 1.80594193935394 1.96921265125275 7.10551261901855 2.64029717445374 2.86139535903931 11.0948781967163 6.34169006347656 3.01716732978821 4.07436656951904 4.68023586273193 6.03292512893677 11.3523893356323 9.41643524169922 10.5031337738037 2.79914021492004 4.04105472564697 4.04090452194214 12.8569259643555 4.95280408859253 14.6692705154419 4.51534748077393 4.61541843414307 13.5198163986206 17.3910446166992 22.007776260376 30.0357074737549 46.9213180541992 6.74463558197021 13.8833618164062 3.34560465812683 28.3345985412598 1.30744016170502 2.40569424629211 0.928009212017059 1.24026429653168 1.31936049461365 1.40971553325653 1.48692429065704 1.59127497673035 1.68202936649323 1.76750385761261 1.83859586715698 1.91449534893036 1.98000824451447 1.52837073802948 1.59585726261139 1.68685364723206 1.78288805484772 1.8708633184433 1.90990316867828 2.00928163528442 2.14874505996704 2.30033731460571 2.51442098617554 2.7291853427887 2.99717307090759 3.21673655509949 3.46913981437683 3.814044713974 4.35220670700073 5.26361608505249 6.60538864135742 7.92993593215942 7.75964403152466 9.21925640106201 14.2476682662964 10.8483934402466 -0.559646010398865 0.459196001291275 1.12341892719269 1.25933051109314 1.36936390399933 1.48980283737183 1.56995022296906 1.6600923538208 1.83724963665009 2.89216184616089 3.13734412193298 3.39273309707642 3.59971141815186 3.74582862854004 4.2082347869873 4.58113288879395 12.5426683425903 4.99246168136597 10.7469501495361 18.4271850585938 34.5579299926758 -0.728860020637512 9.94191455841064 0.330868601799011 3.48278045654297 3.21335864067078 3.54677510261536 4.50213718414307 6.65769910812378 11.1885900497437 22.1471862792969 8.89613151550293 14.5381498336792 14.5562982559204 3.27357292175293 3.74371814727783 3.85517239570618 3.90352129936218 3.98052954673767 5.2536187171936 5.61667490005493 5.80117893218994 5.95871114730835 7.26568269729614 10.8556985855103 21.175443649292 6.02025604248047
1.69278752803802 1.73295342922211 1.78798174858093 1.78507280349731 1.84948515892029 1.91182076931 1.97564220428467 2.03684258460999 2.45326495170593 2.53739643096924 2.61718773841858 2.70478487014771 2.79974389076233 2.8947434425354 2.98119282722473 3.08220911026001 3.18271970748901 3.29795503616333 3.03175115585327 3.15351963043213 3.44550967216492 3.75652575492859 4.08848714828491 9.73346710205078 10.8648853302002 13.8608531951904 25.6897277832031 2.15520191192627 8.29718017578125 9.17812061309814 13.3337097167969 1.92450773715973 5.26694059371948 6.31670331954956 7.8189868927002 9.87789916992188 11.7993192672729 15.0004186630249 19.7206707000732 28.3919105529785 47.5669975280762 1.47238028049469 3.77434659004211 5.97201824188232 0.714924335479736 2.35621166229248 0.788836121559143 1.31222414970398 9.82016754150391 2.12761855125427 2.76183819770813 3.2678906917572 3.39201521873474 1.67406988143921 5.87905597686768 6.49042272567749 14.2481803894043 21.0589504241943 2.50826954841614 1.66841983795166 2.20192122459412 2.28684639930725 2.40643692016602 2.77197766304016 4.76238632202148 18.8939342498779 2.69997906684875 3.76253700256348 7.35057878494263 7.43689966201782 10.5172920227051 20.5116100311279 2.15936422348022 2.21782827377319 3.52818751335144 7.52428913116455 3.33543872833252 11.8266448974609 3.65240716934204 4.12971878051758 9.71388339996338 4.18268918991089 4.93946266174316 14.028226852417 16.1979961395264 15.9721059799194 20.5399379730225 28.0578651428223 23.5409374237061 23.7777481079102 -0.419639229774475 0.317394942045212 1.17581248283386 1.22045803070068 0.893594026565552 0.923262715339661 0.944842278957367 1.01687848567963 1.0836945772171 1.14682149887085 1.22332847118378 1.27552175521851 1.32034873962402 1.35590445995331 1.39545726776123 1.46210730075836 1.55207741260529 1.59770548343658 1.68480706214905 1.78961551189423 1.88419783115387 2.00377154350281 2.14648938179016 1.99432730674744 2.1806001663208 2.42453074455261 2.62004947662354 2.84612989425659 3.14522671699524 3.57523512840271 4.13551187515259 4.96831274032593 6.41029405593872 6.42206716537476 7.15568780899048 8.61575984954834 12.125186920166 0.638023674488068 0.8074671626091 1.60209894180298 1.74039423465729 1.88194406032562 2.04574751853943 2.14839100837708 2.30582523345947 2.50987553596497 2.13920855522156 2.27659702301025 3.40350699424744 4.09246826171875 5.53047704696655 11.4715719223022 3.9399688243866 17.6971340179443 -0.596041083335876 13.2314710617065 4.34871435165405 15.7834424972534 15.7761840820312 1.11059713363647 1.38975834846497 2.26471590995789 -0.138531565666199 -0.134416744112968 -0.0325201936066151 2.10679984092712 3.62834811210632 4.99456691741943 12.3423929214478 2.24022579193115 27.1317329406738 3.02818179130554 24.7287826538086 3.48421120643616 4.17896556854248 4.39000940322876 5.329909324646 5.63786697387695 13.4927291870117 17.9238529205322 25.9670944213867 44.5233497619629 4.93676471710205 6.22945880889893
1.79959332942963 1.82119631767273 1.87476658821106 1.95592963695526 2.04859614372253 2.14506435394287 2.24477958679199 2.33670592308044 2.20539212226868 2.28157424926758 2.32815408706665 2.40626907348633 2.49022674560547 3.12638831138611 3.3478376865387 3.59303402900696 3.89062094688416 4.21388673782349 4.63427448272705 5.16551923751831 5.84085607528687 6.65398359298706 11.3960132598877 13.4937543869019 19.232027053833 33.726749420166 1.30885171890259 5.28376293182373 3.97462892532349 3.93977022171021 4.031325340271 4.38460397720337 4.94996786117554 5.83702325820923 7.16958713531494 9.12836265563965 11.6723403930664 13.6182851791382 17.8171901702881 25.9554176330566 44.7001457214355 6.55860757827759 14.7569408416748 5.16432332992554 0.692499577999115 6.51198291778564 0.872697234153748 4.71305322647095 8.13752269744873 1.80627584457397 2.18003702163696 3.69191241264343 4.95227432250977 5.91835308074951 10.0865459442139 8.59155750274658 9.50123119354248 27.1698741912842 1.68896651268005 1.35297429561615 1.39235961437225 1.42161524295807 2.31185913085938 3.01751661300659 4.69974803924561 6.13304233551025 3.55858850479126 8.2813138961792 5.10120105743408 6.97207260131836 8.73577690124512 16.8843822479248 1.77374649047852 2.62388038635254 5.00078535079956 16.15114402771 3.10555243492126 3.83347702026367 5.23471593856812 7.67505502700806 5.64353322982788 5.06231260299683 14.9346323013306 5.22292232513428 15.3288717269897 17.5087871551514 23.9878463745117 29.0962657928467 36.8940010070801 51.3339996337891 -1.13924372196198 5.82884836196899 0.672659516334534 0.865878462791443 0.869050979614258 0.887776434421539 0.920204520225525 0.959136009216309 1.01182448863983 1.06819450855255 1.12655913829803 1.180304646492 1.21276021003723 1.24231278896332 1.06934988498688 1.11147177219391 1.13853335380554 1.18505084514618 1.26969373226166 1.35596191883087 1.44779205322266 1.53891408443451 1.6533727645874 1.38223302364349 1.52792823314667 1.72865772247314 1.87956237792969 2.06386470794678 2.29774165153503 2.64574670791626 3.02335119247437 3.52517080307007 4.48208570480347 4.55798721313477 5.05319929122925 6.06566667556763 9.49658489227295 0.481653124094009 0.547415971755981 1.06016504764557 1.25380957126617 1.43091523647308 1.63068199157715 1.79258859157562 2.0184314250946 2.22252154350281 2.39776921272278 2.60727524757385 2.87833738327026 3.07065963745117 2.85115075111389 6.23626184463501 7.96305561065674 8.26741790771484 16.8846893310547 0.98628294467926 3.03802299499512 16.5658435821533 21.4211845397949 31.6023712158203 29.0273780822754 4.50356388092041 -1.28836989402771 0.6173015832901 4.1785831451416 8.30109596252441 12.4221458435059 3.0259108543396 0.707692444324493 0.957203328609467 2.51672220230103 18.9610900878906 3.16300368309021 3.45141434669495 3.91406726837158 4.77273988723755 8.33288669586182 16.2436466217041 21.6167621612549 30.9265995025635 49.9419326782227 4.14389038085938 11.3127174377441 4.63108444213867
1.70136427879333 1.57383227348328 1.62194323539734 1.67306745052338 1.75364506244659 1.8495786190033 1.95398545265198 2.05074262619019 2.18145513534546 2.34950256347656 2.50937938690186 2.67911529541016 3.52275490760803 3.8064968585968 4.12245607376099 4.46389102935791 4.86605024337769 5.35295963287354 5.95639038085938 14.7731847763062 19.2145824432373 26.958158493042 43.3448867797852 0.617693364620209 3.68848729133606 4.5016713142395 3.71702265739441 3.50135254859924 3.32025909423828 3.78874683380127 4.01246500015259 4.24860858917236 4.59991455078125 5.16433382034302 6.03250503540039 7.54520559310913 9.89074420928955 14.3767929077148 19.3479156494141 28.0733375549316 47.1156730651855 4.17982196807861 2.78077507019043 0.863311529159546 0.166861191391945 3.32539916038513 1.38083291053772 4.71283626556396 2.0791711807251 2.18572354316711 2.59504103660583 4.15799427032471 5.84877824783325 6.05910778045654 5.48199939727783 4.94073009490967 4.3086838722229 3.9067542552948 11.6143369674683 2.83227109909058 8.41438770294189 1.37623965740204 3.35943388938904 2.4009325504303 3.06450223922729 3.88539481163025 4.05513429641724 6.7280216217041 4.86465692520142 7.20550966262817 10.1333379745483 23.1832408905029 2.07078552246094 4.66093158721924 11.1168766021729 16.2908096313477 3.80857825279236 4.04517984390259 5.05041027069092 10.0902318954468 6.5484504699707 11.9616565704346 12.2204189300537 6.77038240432739 8.35518455505371 20.3042469024658 13.6196880340576 16.3185997009277 19.9469547271729 30.9081611633301 11.7987833023071 -0.182989448308945 9.47410774230957 0.534317374229431 0.443388879299164 0.670317232608795 0.718772530555725 0.757115542888641 0.780696988105774 0.829337418079376 0.865652620792389 0.890535831451416 0.92535525560379 1.38328158855438 0.699603080749512 0.725576043128967 0.765841722488403 0.79593026638031 0.83713698387146 0.8832728266716 0.942358076572418 1.00535678863525 1.08147847652435 0.916828811168671 0.892403781414032 0.956993043422699 1.08162772655487 1.19510662555695 1.32164895534515 1.57769000530243 1.82325971126556 2.15730929374695 5.50048923492432 9.22100734710693 12.7539157867432 20.4988822937012 13.6471729278564 14.9830656051636 -0.703029751777649 1.16079747676849 1.1952463388443 1.89367830753326 2.10794496536255 2.33811140060425 2.56812810897827 2.77829647064209 2.94860291481018 5.02750635147095 5.33477210998535 5.66049003601074 6.08071947097778 6.58427047729492 7.21234369277954 7.82354688644409 8.3478889465332 8.86246681213379 13.5627040863037 18.143970489502 25.2862682342529 42.9372787475586 21.6424102783203 9.66826629638672 6.65928411483765 -2.09564709663391 -0.768182694911957 12.7044095993042 2.30200409889221 -0.603461682796478 0.711861729621887 1.46960926055908 13.7790699005127 2.07257628440857 2.92064642906189 3.49360036849976 7.08237409591675 16.5108470916748 41.603816986084 7.27246427536011 43.1094055175781 18.7528591156006 8.68354034423828 3.25622582435608 3.85700607299805 4.05589294433594
1.6825430393219 1.86685621738434 11.1768054962158 14.0030975341797 20.6694221496582 39.1560974121094 0.437994927167892 2.22341251373291 2.45808053016663 4.19753742218018 4.58899593353271 5.00928735733032 5.50575685501099 6.1037769317627 6.78754568099976 7.60321712493896 8.62657260894775 9.95217895507812 11.9776926040649 15.4051990509033 21.3954010009766 36.7408294677734 1.40755450725555 3.51060891151428 3.65947532653809 3.78581237792969 3.97555327415466 3.78894686698914 3.80336141586304 3.8638961315155 3.94708395004272 4.13833332061768 4.49634122848511 5.24118185043335 6.36852979660034 7.9883279800415 10.3260869979858 11.6640558242798 13.9005756378174 18.7169914245605 33.8846702575684 20.3815155029297 11.1906385421753 0.817279636859894 0.988507091999054 0.996114552021027 1.09999072551727 1.22102844715118 1.3470116853714 1.37238442897797 7.52555418014526 1.60474753379822 5.69263792037964 11.1031923294067 1.38774490356445 2.51761174201965 2.89197731018066 1.84664452075958 1.93584001064301 1.94571995735168 2.72187924385071 6.66113662719727 8.40324401855469 8.87620830535889 4.22956132888794 6.04712104797363 1.65168082714081 3.59480929374695 3.29624080657959 4.11830520629883 4.18680763244629 6.48278713226318 7.33583927154541 18.0110054016113 3.26256418228149 7.54850053787231 0.362111330032349 1.14892399311066 1.24513959884644 9.36837005615234 4.53941345214844 8.71408748626709 12.3010654449463 22.0409908294678 1.76274371147156 6.37061500549316 22.8986797332764 36.7830009460449 0.240522429347038 11.5851612091064 16.6641826629639 11.5404434204102 29.8323841094971 -0.314447075128555 0.42840376496315 0.455241441726685 0.486860454082489 0.518555879592896 0.542392015457153 0.555433750152588 0.581505537033081 0.594647526741028 0.759158432483673 0.886897504329681 0.62389725446701 0.647966146469116 0.666997134685516 0.674415469169617 0.435330033302307 0.449023008346558 0.46123406291008 0.476155042648315 1.10643541812897 2.02829003334045 3.15730381011963 3.45772075653076 3.78222298622131 4.1197452545166 4.52455425262451 5.12961006164551 5.81609010696411 6.69780492782593 8.00690078735352 9.96948623657227 4.45297718048096 6.81530714035034 1.33276772499084 1.80094540119171 3.11476254463196 3.27182769775391 3.36137866973877 3.51579737663269 3.72901558876038 3.96120142936707 4.19221591949463 4.40663576126099 5.08950757980347 6.60982751846313 7.19922780990601 7.66173124313354 8.20956611633301 8.81572437286377 9.53353309631348 10.2880516052246 10.7287225723267 11.1151485443115 13.4982843399048 23.5598239898682 28.5095920562744 39.026065826416 37.8705711364746 20.6004695892334 18.5806980133057 -0.550829589366913 -3.16840624809265 16.0572624206543 4.17584085464478 -1.69903123378754 -0.569832742214203 1.01504075527191 1.7534031867981 2.37916684150696 2.63285803794861 2.95653438568115 17.194091796875 4.16129493713379 20.5588970184326 4.9113712310791 7.84284210205078 14.2068901062012 20.1603622436523 3.03731179237366 3.72950005531311 4.10441303253174
7.68939781188965 8.83725833892822 2.21498990058899 2.23457503318787 2.24062848091125 2.52481341362 2.74948978424072 3.06223702430725 3.42705297470093 3.25928926467896 3.68186926841736 4.11656475067139 4.64518880844116 5.31147527694702 6.03804302215576 6.87557125091553 7.9334454536438 9.28626251220703 2.90677046775818 2.93419742584229 3.0879077911377 3.12548112869263 3.23244786262512 3.39775466918945 3.5478458404541 3.66038799285889 3.70063304901123 3.69521331787109 3.6353075504303 3.90557622909546 3.97975897789001 4.12303352355957 4.35668420791626 4.94122695922852 5.80932378768921 7.03217124938965 8.53341865539551 10.2597284317017 12.6479320526123 16.6879253387451 22.2465534210205 31.8241004943848 51.4583625793457 0.927357614040375 0.582989633083344 2.28741097450256 8.64462089538574 0.432536959648132 1.05335032939911 1.20398116111755 1.23498904705048 1.57725858688354 7.42610597610474 1.5811173915863 2.0052170753479 3.10405778884888 5.17150449752808 2.18891668319702 2.32743644714355 2.79928469657898 5.53798961639404 7.85331392288208 14.2981233596802 27.3906574249268 2.05605363845825 2.54435324668884 3.1479058265686 3.0132110118866 4.77240610122681 3.88179159164429 4.84776306152344 7.55346393585205 9.3791446685791 19.5479526519775 2.30018758773804 0.817284166812897 1.03953170776367 0.403291910886765 1.46179234981537 5.11686992645264 2.57193040847778 4.86360120773315 6.27358531951904 11.3471183776855 18.0847473144531 1.80899024009705 9.93957138061523 10.5633935928345 11.4627227783203 7.74994993209839 5.26962232589722 2.95313286781311 2.72146201133728 0.920848786830902 0.294244349002838 0.217753946781158 0.243573427200317 0.253530323505402 0.271082848310471 0.827652096748352 0.354263722896576 0.368465423583984 0.409783869981766 0.75336742401123 1.13169157505035 1.79143726825714 1.89166975021362 1.96671307086945 2.04968523979187 2.15359258651733 2.28034019470215 2.41961336135864 2.60672855377197 2.79527711868286 0.793510138988495 0.834012866020203 0.870662808418274 1.16041886806488 2.12689995765686 2.29571628570557 2.39258742332458 2.49859213829041 3.30949854850769 5.04931831359863 8.50070095062256 13.4995985031128 2.52571415901184 3.32582950592041 4.2312970161438 4.55846834182739 4.78852939605713 5.00246477127075 5.25503826141357 5.52682113647461 5.79415702819824 6.07041168212891 6.35557651519775 8.85204219818115 10.2488918304443 11.4951448440552 12.2584619522095 13.1426038742065 13.8134870529175 15.2066373825073 16.0574131011963 16.8086910247803 18.4675731658936 27.1703224182129 33.6249008178711 42.1267318725586 41.1129341125488 19.0626029968262 -0.468540519475937 4.05690670013428 -2.86750888824463 -2.42990207672119 -2.41733980178833 -1.80465042591095 -0.987147510051727 -0.150618702173233 1.00573134422302 1.86089658737183 2.60345983505249 3.87409448623657 7.63786602020264 5.52736520767212 6.67282676696777 5.68558216094971 8.24715328216553 7.83986330032349 3.14593768119812 3.26026082038879 3.42956972122192 3.89470052719116
2.07872629165649 2.08044862747192 2.47068166732788 2.36110210418701 1.67577362060547 1.79236578941345 1.94066345691681 2.13170623779297 1.80795812606812 1.92367708683014 2.04121994972229 2.04700541496277 2.18358254432678 2.33471703529358 2.46385717391968 3.56966328620911 3.65687298774719 4.49049139022827 10.5999383926392 2.3507821559906 3.0757052898407 3.16495275497437 3.28860640525818 3.42667126655579 3.55624723434448 3.64461255073547 3.69716477394104 3.74750471115112 5.48788356781006 6.17376041412354 9.76348495483398 12.0060377120972 12.0688171386719 31.7911262512207 1.30701231956482 6.71284914016724 8.22942638397217 9.85748863220215 15.5350685119629 21.3241214752197 31.4828243255615 51.3119735717773 4.85771369934082 0.654361367225647 0.794120192527771 0.908441066741943 4.82635068893433 1.79689240455627 1.71259415149689 6.63803291320801 1.25735819339752 1.40047442913055 8.05648517608643 2.04204106330872 2.23469400405884 2.70596790313721 2.59721183776855 3.22893524169922 6.08688020706177 3.69540500640869 1.81019198894501 1.76071178913116 3.71738386154175 1.85958337783813 4.91100454330444 7.64310741424561 2.7906322479248 9.40682125091553 2.8702929019928 4.11167812347412 4.79642534255981 11.5417861938477 2.57048630714417 8.99409294128418 5.24981164932251 11.195502281189 2.35706543922424 1.11451303958893 1.94225406646729 2.64720773696899 2.64885306358337 6.94790458679199 9.09364128112793 16.5606498718262 19.2449512481689 4.01794672012329 7.31985425949097 32.8549308776855 49.980094909668 -0.798865497112274 7.0289888381958 4.19405651092529 3.02562212944031 0.914184212684631 0.764332890510559 1.25993752479553 1.31870687007904 1.36508977413177 1.40291464328766 1.4692280292511 1.49208748340607 1.53161609172821 1.58241033554077 1.63031697273254 1.6823023557663 0.552184581756592 0.562675952911377 0.648901700973511 0.989254593849182 1.54723298549652 1.64709007740021 1.70396721363068 1.77259933948517 1.82796573638916 1.88981068134308 1.94617414474487 2.00190114974976 2.12371897697449 2.83396196365356 3.16555857658386 3.39509224891663 7.00902938842773 10.9042835235596 15.3579416275024 29.8671398162842 14.1022109985352 2.61365032196045 4.44089603424072 5.70755243301392 6.55518674850464 7.32868576049805 7.63438653945923 7.97948884963989 8.34793090820312 8.73538875579834 9.15666484832764 9.60723972320557 10.5152568817139 11.798282623291 12.6035461425781 13.5037593841553 14.5651340484619 15.8545274734497 17.2127857208252 18.3755130767822 19.8818225860596 22.3348617553711 32.4871368408203 32.5235061645508 42.6478118896484 56.1449508666992 1.59355664253235 15.4068384170532 8.22358894348145 -3.82185411453247 9.68556022644043 -2.34483695030212 -1.83549666404724 -1.55255997180939 -0.542472124099731 0.382406234741211 1.4156379699707 2.13719058036804 2.97052621841431 8.41725635528564 21.6773223876953 3.09897971153259 6.4139142036438 8.26593685150146 15.0003423690796 26.4977989196777 2.65613985061646 2.82064414024353 3.43687701225281
1.87817203998566 1.96259045600891 2.09590077400208 2.11740493774414 2.12931418418884 1.40237081050873 1.41998195648193 1.48586809635162 1.57194232940674 1.66282367706299 1.84725987911224 1.95429956912994 2.07939696311951 3.38556361198425 4.2971396446228 5.56439304351807 13.5451183319092 2.05666065216064 2.1016685962677 16.6168727874756 2.74975490570068 4.2587833404541 4.52186346054077 4.80785226821899 5.19701862335205 5.62202310562134 6.0766453742981 6.64984512329102 7.40275192260742 8.13947486877441 8.64888381958008 12.0694828033447 14.6303625106812 27.9772453308105 17.1606903076172 0.336301118135452 9.00021266937256 11.136773109436 12.5453071594238 17.145486831665 26.5036563873291 46.1366539001465 1.89417707920074 3.38224411010742 3.01191782951355 2.30047249794006 19.1857204437256 1.69961738586426 0.0243367496877909 0.315950602293015 0.488127499818802 0.544648230075836 0.842720508575439 3.59238243103027 1.12820744514465 1.33214569091797 1.4532915353775 2.54005169868469 4.8915638923645 1.72761285305023 4.12848949432373 4.60572910308838 1.36124885082245 1.17182052135468 1.22276616096497 1.84016239643097 5.40758371353149 3.04920864105225 8.7060022354126 1.64913094043732 3.32578301429749 2.51651692390442 3.01336240768433 4.92112016677856 6.69515419006348 7.27168130874634 7.15078830718994 2.1149046421051 2.62238216400146 2.96279215812683 8.09857177734375 6.44645643234253 10.9110908508301 17.2625694274902 15.6677083969116 0.105449989438057 12.3804740905762 24.2561378479004 32.0388832092285 34.6355285644531 0.107468985021114 6.72915029525757 3.5926628112793 1.32494342327118 1.1360057592392 0.107396379113197 0.180310726165771 0.282948523759842 0.498412579298019 0.516819596290588 0.958574712276459 12.0222415924072 15.6945772171021 22.6298656463623 38.5328102111816 3.98610591888428 6.79441833496094 7.96189880371094 8.61133193969727 0.641272187232971 0.907720506191254 2.46294474601746 2.56051445007324 2.68111848831177 2.95911860466003 3.25878047943115 3.61147236824036 4.06633186340332 4.68241262435913 5.5423903465271 6.62304782867432 8.1107177734375 9.51612186431885 14.8715810775757 29.1839561462402 5.09694385528564 6.45610857009888 6.65210294723511 6.86900234222412 7.62876653671265 7.91232204437256 8.22244644165039 8.58130550384521 8.97056198120117 9.39640331268311 9.85498142242432 10.3856887817383 12.8029718399048 13.658447265625 14.6492824554443 15.8228397369385 17.2359504699707 18.8696460723877 20.6854305267334 22.520902633667 24.5880565643311 27.5277481079102 35.0997200012207 24.5308799743652 33.7752151489258 42.6468353271484 21.6425151824951 21.9862442016602 -4.91988611221313 -3.15832185745239 -2.82048654556274 0.611704885959625 -2.35724020004272 -1.50912833213806 -0.900546491146088 -0.156987518072128 0.846304059028625 1.44372797012329 1.93129420280457 8.83426380157471 14.1629619598389 2.60174417495728 2.45934462547302 3.27239799499512 5.16336393356323 2.45722484588623 2.35612201690674 2.57062602043152 2.78690075874329
2.29545640945435 2.48382568359375 1.74901974201202 2.10120534896851 2.42688465118408 2.01673626899719 1.43949234485626 1.48157048225403 1.5631468296051 1.65641593933105 1.74692904949188 2.01424384117126 17.5080757141113 23.1168270111084 33.1000556945801 53.1831092834473 -0.452737212181091 17.2152366638184 27.9368133544922 12.4733238220215 0.172369718551636 4.47016763687134 4.82831382751465 5.13070344924927 5.5594220161438 6.1025128364563 6.66976261138916 7.31486892700195 8.11568927764893 8.95295238494873 9.99289989471436 2.62728095054626 3.21969532966614 3.70679068565369 4.03282833099365 4.59818649291992 6.39283323287964 13.9067401885986 18.9233913421631 28.395975112915 49.1786308288574 -0.116905093193054 0.366222470998764 7.60052013397217 9.36202335357666 0.299442738294601 1.63949918746948 11.8834104537964 2.12909603118896 4.22437953948975 0.0665319412946701 0.369553983211517 0.532830357551575 0.585198163986206 0.767046689987183 5.06685590744019 7.44004726409912 9.50085258483887 16.7283821105957 0.549452543258667 0.97814017534256 7.27425670623779 1.15758061408997 1.187175989151 1.23790371417999 3.25542283058167 7.3216404914856 1.87317419052124 2.06565809249878 2.31446409225464 2.14852499961853 3.05694150924683 2.37793397903442 3.87145018577576 5.25099229812622 5.48170900344849 6.06562757492065 2.77332282066345 3.01559591293335 3.14822316169739 6.1657018661499 5.73871803283691 6.44113731384277 9.50868701934814 20.575855255127 3.96999382972717 4.53555393218994 16.4395389556885 33.5569381713867 35.0695953369141 9.79068374633789 0.11876967549324 0.527607977390289 3.91054201126099 4.05196237564087 4.55258798599243 5.16661596298218 5.82352781295776 6.69829511642456 7.9475245475769 9.36384010314941 8.35525608062744 9.14619922637939 10.9277439117432 13.5985860824585 18.2794208526611 20.9894313812256 1.33372044563293 1.68834114074707 2.20760202407837 4.84651660919189 3.14815735816956 10.9383115768433 4.3350944519043 3.55966401100159 4.28174448013306 4.40279245376587 4.53321981430054 4.68782186508179 5.16005420684814 5.36180877685547 6.09233665466309 8.74477005004883 13.8037414550781 27.5599422454834 5.50223922729492 6.82794523239136 7.07853603363037 8.28411293029785 8.62717437744141 8.97605991363525 9.34933090209961 9.74024391174316 10.1738662719727 10.6786050796509 11.2602605819702 11.9157228469849 10.9200010299683 12.0442361831665 13.5526523590088 14.5091590881348 15.5652170181274 17.3591480255127 30.2480888366699 16.6244068145752 20.3822765350342 23.4270668029785 36.3108673095703 27.5147171020508 35.9380073547363 43.7008323669434 13.0348720550537 23.052640914917 -5.14755249023438 -0.0732851549983025 -3.29044342041016 -0.00820169132202864 -2.46204519271851 15.3360404968262 -1.51091122627258 -1.24998497962952 -0.629111647605896 0.48001229763031 1.02349209785461 1.2590297460556 1.29283535480499 2.60248064994812 9.99388885498047 13.5228404998779 20.8201370239258 28.4858322143555 5.38249921798706 17.5343494415283 1.34535312652588
1.85033094882965 2.15820646286011 5.29391765594482 5.62241268157959 5.94496965408325 6.31000089645386 6.69253015518188 7.23783493041992 8.2131814956665 9.57100582122803 11.155873298645 13.163125038147 15.6158504486084 20.5549564361572 29.1562995910645 47.9337120056152 5.95495319366455 10.1267862319946 9.22309970855713 10.2141761779785 -0.795969486236572 -0.402720212936401 2.02053284645081 2.19192337989807 2.37031197547913 2.5837926864624 2.97405385971069 4.14923572540283 4.38756370544434 4.58535671234131 4.73455142974854 4.86425065994263 5.26756858825684 5.9238224029541 6.34106826782227 7.14248943328857 9.57265758514404 9.21466064453125 16.2252178192139 21.824104309082 32.0495223999023 52.3952484130859 -0.505494892597198 0.252518653869629 5.0312066078186 16.7302551269531 0.212337270379066 12.3565521240234 0.341245621442795 3.59843063354492 4.85245704650879 0.0207351967692375 11.9858703613281 0.190058007836342 0.304587870836258 0.423956483602524 0.933040142059326 2.75864100456238 8.09144592285156 1.04445624351501 1.40042948722839 1.47037971019745 3.15395283699036 6.23316431045532 4.5865740776062 6.70036554336548 1.32920241355896 1.79564309120178 1.8891886472702 2.00591540336609 4.40130758285522 2.03961491584778 5.29941749572754 2.58091759681702 2.90361404418945 3.24803924560547 3.39493608474731 4.08283662796021 4.28659820556641 5.52994918823242 7.7268238067627 4.83390998840332 7.79878759384155 8.64633846282959 14.3996229171753 25.3833198547363 4.76796436309814 14.4597501754761 28.9562644958496 32.2223930358887 20.7879123687744 1.14233839511871 1.57608449459076 1.81042468547821 3.96175599098206 3.71975183486938 3.60779404640198 4.09692049026489 4.70705413818359 5.36967802047729 6.17385053634644 7.12766790390015 8.39702701568604 10.0494785308838 13.2716608047485 23.5722484588623 2.79462504386902 2.87380003929138 5.74433565139771 7.13378286361694 9.42715740203857 21.4874172210693 3.43573188781738 3.9660747051239 4.21841430664062 4.4879298210144 4.619788646698 4.75842523574829 5.50934314727783 5.7138090133667 5.93679475784302 9.15565490722656 12.7510643005371 19.5907859802246 36.9602699279785 5.72513198852539 7.60662698745728 7.92283010482788 7.4920220375061 7.85834169387817 8.78682804107666 9.12120723724365 9.4701452255249 9.84838485717773 10.2767353057861 10.7580718994141 11.3009901046753 11.9153957366943 12.6248292922974 13.0536451339722 14.1497402191162 15.3581056594849 18.7274684906006 16.5187473297119 17.1242942810059 23.9078769683838 32.0486488342285 39.6391677856445 18.1383724212646 19.5057373046875 36.82080078125 15.9485607147217 20.4452476501465 7.31246185302734 -1.68149483203888 18.4896488189697 -3.26341414451599 -1.82822704315186 2.596027135849 13.736156463623 -1.83091282844543 -1.21453106403351 0.477837949991226 9.3297815322876 3.44894170761108 25.2863426208496 8.33491134643555 15.46120262146 22.0170726776123 40.7472457885742 15.9633407592773 12.7253398895264 -0.334683418273926 0.247731283307076
4.76469945907593 4.99410581588745 4.92864322662354 5.22778177261353 5.5336389541626 5.88709020614624 6.18285036087036 6.74475193023682 7.62263965606689 8.63367080688477 10.0413074493408 11.763090133667 12.4962310791016 20.0232200622559 25.8076591491699 39.4804420471191 30.8020763397217 7.67284679412842 24.5250759124756 4.52446508407593 -1.28722298145294 -1.22041249275208 2.32481026649475 2.70985913276672 3.01707696914673 3.33587265014648 3.60682415962219 3.31394791603088 4.85025501251221 5.08346080780029 5.30814647674561 5.63359212875366 6.26766157150269 6.9280858039856 7.21576404571533 7.82447385787964 9.68419933319092 23.9498805999756 30.7869167327881 42.1464424133301 61.4089202880859 -1.32412195205688 -0.972582817077637 -0.136231541633606 6.65538358688354 -0.0365363173186779 0.923628091812134 6.23998117446899 14.0831432342529 9.23131847381592 1.67809021472931 6.14054918289185 11.1000852584839 2.32432436943054 1.2893602848053 0.547213673591614 3.26757264137268 1.93679261207581 0.645261347293854 3.0359423160553 1.00791251659393 1.62415444850922 3.48558306694031 4.60609531402588 1.97981488704681 5.31339693069458 1.76675987243652 5.6660270690918 2.58636999130249 3.30987095832825 4.71783399581909 9.00041961669922 6.04417085647583 2.01511693000793 2.74737405776978 9.11813831329346 4.42423009872437 3.35454034805298 4.75996351242065 3.50949287414551 3.87339043617249 4.52676963806152 6.50939607620239 8.13678073883057 11.7821130752563 18.0894069671631 4.60854053497314 9.20148658752441 11.2202377319336 30.8452320098877 16.0702342987061 21.3117866516113 23.887622833252 5.5492787361145 7.33403587341309 -0.9876629114151 1.86656033992767 2.42492127418518 3.13121652603149 4.00592803955078 4.82273864746094 5.74174976348877 8.33634853363037 8.84143352508545 13.6110868453979 14.7005310058594 2.85806155204773 4.08453226089478 4.55590867996216 5.47538185119629 7.6291823387146 17.6761436462402 3.94194722175598 26.4390296936035 3.99701833724976 4.96818399429321 5.12287998199463 5.28308343887329 5.14150524139404 5.31613731384277 6.55684280395508 6.18179321289062 7.11932945251465 11.5841627120972 24.1520290374756 6.36589908599854 7.52855777740479 7.81508016586304 8.10029315948486 8.41893863677979 8.48309516906738 8.80421352386475 9.14547824859619 9.51868438720703 9.92281436920166 10.3712177276611 10.888503074646 11.4782619476318 12.1542692184448 11.1640148162842 11.9080276489258 12.7460079193115 13.8823137283325 22.3300437927246 27.9215850830078 29.8217067718506 55.3465042114258 9.35581493377686 45.7580604553223 16.217378616333 21.2966747283936 31.4268856048584 7.20453119277954 8.20883178710938 -4.22580480575562 0.357973754405975 -3.47440314292908 -2.36074185371399 -0.838438928127289 -0.246836081147194 5.17075109481812 0.757594406604767 2.83489084243774 6.96006727218628 9.61085605621338 16.5943222045898 14.0390062332153 16.8344612121582 27.2274379730225 40.4371147155762 9.26832389831543 11.7558908462524 -0.481007516384125 -0.0612017847597599
