NCOLS 172
NROWS 32
XLLCORNER 353904
YLLCORNER 6700464
CELLSIZE 16 
NODATA_value -3.4e+38 
3.70356440544128 3.68966579437256 3.71927499771118 3.66719079017639 3.53507423400879 3.22610592842102 2.76934361457825 2.45838618278503 2.06904864311218 1.8589426279068 1.97894012928009 2.29360842704773 2.65027117729187 2.958411693573 3.09306478500366 3.16511368751526 3.25695872306824 3.24704265594482 2.94118404388428 2.41229271888733 2.2279360294342 2.0435848236084 1.64466500282288 1.28389739990234 1.02400541305542 0.923591375350952 0.765909135341644 0.59502911567688 0.472758293151855 0.455668926239014 0.494070261716843 0.553847193717957 0.659505605697632 2.5704710483551 0.590974986553192 0.574074387550354 0.586784422397614 0.597859919071198 1.05785834789276 2.97673439979553 2.38554167747498 1.24235463142395 0.584495604038239 0.633425533771515 0.856617152690887 0.983080089092255 0.566080629825592 0.567928791046143 0.59473991394043 0.618148624897003 0.610964596271515 0.630699753761292 0.665371060371399 0.751630306243896 0.881014227867126 0.995115220546722 1.23875820636749 1.38801312446594 1.37878894805908 2.09906029701233 1.90424716472626 1.47598850727081 1.09852588176727 1.30032277107239 1.39384341239929 1.48618030548096 1.61037540435791 1.94115078449249 2.1065571308136 2.20792365074158 2.43635940551758 2.95470643043518 3.47341752052307 3.82641339302063 4.71005964279175 5.6922550201416 6.90287351608276 7.73893213272095 8.6699104309082 8.61181831359863 7.29671335220337 5.31658935546875 1.71136856079102 -1.16867482662201 -1.50117468833923 -1.43037748336792 -1.25392866134644 -0.955935418605804 -0.731754183769226 -0.64252245426178 -0.66935259103775 -0.683479011058807 -0.202159613370895 0.00612402521073818 -1.09513986110687 -1.45594882965088 -1.44181180000305 -1.05021071434021 -0.544693410396576 -1.82027637958527 -1.74996364116669 -1.59284627437592 -1.39103376865387 -1.17676889896393 -0.85792350769043 -0.762892603874207 -0.640491962432861 -0.236873835325241 0.00171639665495604 0.015529952943325 0.298955053091049 0.45898824930191 0.571297168731689 0.60250461101532 0.763172626495361 0.849699378013611 0.917453229427338 0.926920115947723 0.981259822845459 0.851138293743134 0.984431982040405 1.0420126914978 0.754930794239044 0.430277138948441 0.213905230164528 0.231610536575317 0.240448698401451 0.41520744562149 1.28726601600647 2.4049596786499 3.39161920547485 3.83267021179199 4.57291650772095 4.66067266464233 5.5681848526001 7.30766439437866 13.2811155319214 15.3595638275146 16.9897270202637 17.067440032959 14.3003044128418 11.7261915206909 5.6690821647644 2.20828819274902 0.597003281116486 1.22328615188599 1.29814851284027 0.465145260095596 -2.92053198814392 -2.56092071533203 -2.06004166603088 -1.36014652252197 -0.798509836196899 -0.18146575987339 0.597392499446869 1.11875581741333 1.27235054969788 1.28917145729065 1.29271066188812 1.44074654579163 1.38726723194122 1.29413104057312 1.61702406406403 2.3046772480011 2.98194146156311 3.65371775627136 4.33730220794678 4.57636070251465 4.70830202102661 4.86088371276855 4.97724390029907 5.07838582992554
3.49502801895142 3.48197436332703 3.39890837669373 3.27285146713257 3.0358030796051 2.52419781684875 2.06679463386536 1.86818444728851 1.59504365921021 1.32374227046967 1.6161413192749 2.2252402305603 2.6182062625885 2.76954627037048 2.89950585365295 3.01357269287109 3.04294872283936 2.84298586845398 2.46395349502563 2.21188998222351 2.02217960357666 1.8532041311264 3.76507759094238 1.50063228607178 0.758643388748169 0.621417999267578 0.449697613716125 0.310198962688446 0.238885462284088 0.24950884282589 0.257808834314346 0.271465301513672 0.413593858480453 0.580797970294952 0.551466643810272 0.523898363113403 0.522217929363251 0.521641671657562 0.556269228458405 0.582708537578583 1.23608863353729 2.47721743583679 0.618811011314392 0.722683608531952 1.00530922412872 0.705396056175232 0.545886814594269 0.563852727413177 0.576798021793365 0.592835664749146 0.615634799003601 0.605156123638153 0.624788999557495 0.672833323478699 0.780813217163086 0.88381415605545 1.06537067890167 1.10110068321228 1.17189681529999 1.06375336647034 1.38596165180206 1.92805016040802 1.19382607936859 1.38845562934875 1.42552506923676 1.53330218791962 1.81220698356628 1.93173098564148 1.99820649623871 2.1596360206604 2.57732033729553 2.98917007446289 3.31021523475647 3.71395206451416 4.48404932022095 5.31323909759521 6.46781826019287 7.76236343383789 8.51766014099121 8.9651346206665 8.46752548217773 5.68298006057739 3.16650605201721 -0.467453688383102 -1.71434092521667 -1.84693109989166 -1.71639239788055 -1.41763758659363 -0.964877486228943 -0.805770099163055 -0.775211811065674 -0.526999056339264 0.279877334833145 0.656121015548706 -0.785825490951538 -1.41022121906281 -1.29999244213104 -0.660438179969788 -0.280891537666321 -1.84577715396881 -1.73727226257324 -1.49716639518738 -1.27267050743103 -0.918557822704315 -0.797743797302246 -0.672042191028595 -0.331735372543335 -0.16957001388073 -0.218263790011406 -0.0565477758646011 0.0499772690236568 0.096702978014946 0.00573556823655963 0.36476868391037 0.66876345872879 0.558673083782196 0.601400196552277 0.566270411014557 0.718295753002167 0.813170552253723 0.964631199836731 1.05120527744293 1.03482842445374 0.823248028755188 0.530138075351715 0.381490230560303 0.303942978382111 0.505159139633179 1.52276372909546 2.7404477596283 3.13077402114868 3.63163113594055 3.80653262138367 4.8108491897583 6.56898593902588 11.7326364517212 13.7136859893799 15.0860939025879 16.7855415344238 16.4833717346191 15.9759979248047 13.580587387085 7.75697040557861 4.25728988647461 1.00124382972717 0.46062496304512 -0.950604915618896 -3.1115186214447 -2.80853629112244 -2.43966269493103 -1.97032809257507 -1.42314565181732 -0.917937040328979 -0.28911629319191 0.462185621261597 0.829448521137238 0.939368963241577 1.12359380722046 1.2713770866394 1.23833775520325 1.00612235069275 0.921916306018829 1.3290843963623 1.86563110351562 2.36118841171265 3.0327136516571 3.89877438545227 4.50768184661865 4.6703314781189 4.80315446853638 4.91414642333984 4.91203212738037
3.33340501785278 3.25047659873962 3.10577464103699 2.88126087188721 2.47333860397339 1.98063111305237 1.59410500526428 1.36450660228729 1.22964119911194 1.22401642799377 1.53431153297424 2.0712296962738 2.35433411598206 2.60653710365295 2.72664356231689 2.89423322677612 2.935307264328 2.72310376167297 2.24757623672485 2.00246214866638 1.66256141662598 3.08422660827637 5.78767442703247 4.30794954299927 0.542994439601898 0.391763895750046 0.240885645151138 0.12634114921093 0.0453681647777557 0.00526987621560693 0.0540548861026764 0.142326697707176 0.30494824051857 0.539305865764618 0.817521214485168 0.490894973278046 0.491692513227463 0.481350004673004 0.489371538162231 0.517616093158722 0.531233787536621 0.545645296573639 0.601963758468628 1.21190297603607 1.97557687759399 1.1819816827774 0.5383620262146 0.561503767967224 0.5830118060112 0.584482431411743 0.583259046077728 0.608665943145752 0.619093656539917 0.629708468914032 0.664684355258942 0.912849307060242 0.944414973258972 0.792221963405609 0.878539502620697 0.939061939716339 1.02225244045258 1.12287974357605 1.2690417766571 1.39973568916321 1.48562431335449 1.71132910251617 1.79762613773346 1.84867107868195 1.97367119789124 2.30735540390015 2.62327885627747 2.9079749584198 3.23188591003418 3.61534261703491 4.15342044830322 5.23263072967529 6.1948709487915 7.41375064849854 8.41821002960205 8.85750961303711 10.3168954849243 6.94010877609253 2.49091744422913 -0.71164470911026 -2.06409692764282 -2.16241407394409 -2.09433174133301 -1.80059623718262 -1.38378298282623 -1.25262367725372 -0.924379587173462 -0.144938185811043 0.507628798484802 0.360317826271057 -0.428326070308685 -0.776100337505341 -0.78503030538559 -0.492199182510376 -1.63144755363464 -1.89871072769165 -1.71948027610779 -1.44667935371399 -1.13387584686279 -0.946727693080902 -0.738095581531525 -0.395806670188904 -0.258744776248932 -0.353621751070023 -0.271417796611786 -0.238611787557602 -0.29482364654541 -0.354852020740509 -0.0717166066169739 0.26788654923439 0.495789289474487 0.431007623672485 0.412155270576477 0.451236695051193 0.590957164764404 0.784982025623322 0.924343347549438 1.0713187456131 1.10784685611725 0.959720849990845 0.594955682754517 0.298349380493164 0.296471655368805 0.957325518131256 1.77243912220001 2.35161328315735 2.91985464096069 3.2693042755127 3.90757489204407 5.45841550827026 8.79614543914795 12.0302820205688 12.8344039916992 14.1743354797363 14.4703645706177 15.179988861084 14.2542190551758 11.7553768157959 8.57442188262939 4.59890079498291 0.702431082725525 -0.306835860013962 -2.19383978843689 -3.00364089012146 -2.71321415901184 -2.34924006462097 -1.85634970664978 -1.40723359584808 -0.92268031835556 -0.376353621482849 0.110954448580742 0.306124627590179 0.675651788711548 0.95574939250946 1.0163654088974 1.15761172771454 0.548845946788788 0.613750159740448 1.17847418785095 1.70130503177643 2.39883804321289 2.91001319885254 3.55325484275818 4.39435720443726 4.61706733703613 4.73501968383789 4.75505781173706 4.729567527771
3.09363198280334 2.95480108261108 2.75472521781921 2.35509634017944 1.96692550182343 5.03956460952759 4.15953540802002 1.10890221595764 1.1028151512146 1.32871186733246 1.37936532497406 1.57215666770935 2.04028415679932 2.39546585083008 2.65818333625793 2.74784374237061 2.55461525917053 2.17566990852356 1.96452403068542 1.90538573265076 2.51735281944275 3.89457488059998 5.11310052871704 5.72532892227173 0.837627768516541 0.393312752246857 1.36674106121063 1.90632164478302 -0.0930161848664284 -0.206779599189758 -0.128756731748581 0.0594056993722916 0.262291103601456 0.48499071598053 1.8390679359436 0.479307323694229 0.465534269809723 0.458805322647095 0.457027196884155 0.456741005182266 0.458712249994278 0.469086974859238 0.497362494468689 0.535818755626678 1.2788782119751 2.47436356544495 0.896381795406342 0.567532002925873 0.589614629745483 0.804734826087952 0.579871416091919 0.595787763595581 0.623042464256287 0.652673959732056 0.770510494709015 0.820043742656708 0.899539649486542 0.847777426242828 0.887573719024658 0.990120470523834 1.06764984130859 1.20793342590332 1.31169402599335 1.42571675777435 1.61405885219574 1.70575320720673 1.72453224658966 1.81545376777649 2.09551286697388 2.3500874042511 2.59504389762878 2.8457362651825 3.19458198547363 3.54715704917908 4.01910734176636 5.00185394287109 5.94281387329102 7.11117362976074 8.47185802459717 9.73713207244873 10.5668048858643 11.9314794540405 9.95863056182861 0.74629682302475 -2.30151152610779 -2.42802619934082 -2.32201051712036 -2.1436505317688 -1.75371694564819 -1.29115605354309 -0.871230006217957 -0.538579642772675 -0.298586994409561 -0.613803803920746 -1.23075914382935 -0.910789966583252 -0.546683073043823 -0.163174897432327 -1.94250619411469 -1.91444802284241 -1.86509382724762 -1.53631901741028 -1.31160807609558 -1.06521880626678 -0.659009575843811 -0.407898217439651 -0.42910560965538 -0.372569799423218 -0.350643783807755 -0.467934012413025 -0.62015426158905 -0.38269630074501 -0.0536101311445236 0.204012602567673 0.321081757545471 0.249032631516457 0.32107138633728 0.410209953784943 0.6293004155159 0.727773249149323 0.876752257347107 0.966147303581238 0.988854646682739 0.974022269248962 0.684505999088287 0.276996433734894 0.87002044916153 1.52944433689117 2.04172205924988 2.33298826217651 2.51274752616882 3.05694317817688 4.03152370452881 6.0007905960083 9.51058769226074 11.3417978286743 12.2620496749878 12.7297506332397 13.6576414108276 14.0372486114502 11.1248989105225 7.3708381652832 5.23920202255249 2.38650584220886 -0.788336396217346 0.00846158713102341 -3.13786363601685 -2.98935961723328 -2.69030904769897 -2.28265190124512 -1.80743956565857 -1.36852288246155 -0.944033265113831 -0.549862682819366 1.67635500431061 -0.165973410010338 0.245454043149948 2.44400215148926 6.60804128646851 7.1646614074707 1.74849414825439 0.587724268436432 1.08557868003845 1.74691593647003 2.38804483413696 3.09225177764893 3.67621898651123 4.22067499160767 4.51101446151733 4.5679874420166 4.5764331817627 4.5051703453064
2.82654166221619 2.63325071334839 2.27917218208313 1.89228451251984 3.5316526889801 3.91443371772766 11.7241725921631 6.24217891693115 1.32383382320404 4.55194759368896 1.38582623004913 1.31001365184784 1.57929909229279 2.15887522697449 2.485435962677 2.39555025100708 2.06457543373108 1.86555933952332 1.69169569015503 2.32265448570251 3.17259836196899 3.79419898986816 4.92324209213257 5.82543802261353 3.88174366950989 2.64008665084839 3.05054950714111 5.28463077545166 5.44567108154297 -0.239568710327148 -0.202240854501724 -0.0462585277855396 0.200454965233803 0.435667335987091 1.65432131290436 1.13121354579926 0.443912982940674 0.43472808599472 0.42604985833168 0.422112137079239 0.411096453666687 0.415362149477005 0.432825744152069 0.456446349620819 0.49146643280983 0.519088387489319 1.29805195331573 1.70504724979401 0.581495702266693 0.616300463676453 0.591433107852936 0.609941184520721 0.624283373355865 0.682038009166718 0.776012122631073 0.771401226520538 0.82311999797821 0.879757821559906 0.941569983959198 1.01331746578217 1.17344570159912 1.26021158695221 1.30929982662201 1.53942000865936 1.58265399932861 1.62735390663147 1.68719732761383 1.92936408519745 2.14080190658569 2.35377359390259 2.57401180267334 2.84459686279297 3.13935446739197 3.48339653015137 3.97139596939087 4.59232473373413 5.73350143432617 6.99197769165039 9.02015399932861 10.1987104415894 11.1700658798218 10.7133054733276 21.0017433166504 12.8979778289795 0.274709701538086 -2.58738398551941 -2.49317145347595 -2.36856293678284 -2.06126165390015 -1.62811434268951 -0.699425101280212 -0.418673694133759 0.552545785903931 1.48975360393524 0.386300384998322 -0.407153904438019 -0.484704077243805 -0.715449929237366 -2.06361985206604 -2.13861465454102 -2.13559770584106 -1.99854123592377 -1.83516693115234 -1.47328567504883 -1.17214632034302 -1.02847898006439 -0.756274044513702 -0.55507880449295 -0.603798687458038 -0.748030841350555 -0.626633703708649 -0.417610168457031 -0.148108929395676 0.0498192049562931 0.119734033942223 0.0865268558263779 0.197420805692673 0.415087670087814 0.587155640125275 0.710983157157898 0.808269441127777 0.894727230072021 0.93593156337738 0.743370532989502 0.315248906612396 0.794049739837646 1.4559611082077 1.89213502407074 2.13492178916931 2.18671083450317 2.41055727005005 3.02297449111938 4.68764543533325 8.42863464355469 9.49770259857178 10.3864984512329 11.1581201553345 11.6173467636108 12.5655288696289 15.1488103866577 11.5638360977173 5.48221588134766 4.2462043762207 3.69817185401917 -2.85307097434998 -1.79190039634705 2.99173331260681 0.895116746425629 -0.825372695922852 -2.08204174041748 -1.7644237279892 -1.38128507137299 -1.00391566753387 -0.645771741867065 2.97534728050232 -0.124402523040771 0.893315732479095 5.06994247436523 9.95073127746582 9.3202657699585 8.44092178344727 3.55649781227112 1.38797771930695 1.70120418071747 2.31088781356812 3.11484026908875 3.65110421180725 4.07240629196167 4.30942153930664 4.40170860290527 4.35062885284424 4.31775140762329
2.553870677948 2.20764899253845 1.85628533363342 2.29141688346863 2.67176246643066 5.6710000038147 7.99524641036987 11.8774690628052 5.91849708557129 6.87851715087891 8.19320011138916 1.31349110603333 1.41806507110596 1.89613425731659 2.07518649101257 1.87543773651123 1.75084328651428 1.5814995765686 1.66399967670441 2.45857071876526 3.15715765953064 3.93999743461609 4.41199398040771 4.40801858901978 4.92052841186523 4.26886510848999 4.89243364334106 6.48112678527832 8.56824493408203 4.10709810256958 -0.175626456737518 -0.0616642981767654 0.193036034703255 0.408872365951538 0.856049001216888 1.5918755531311 0.529809713363647 0.41646671295166 0.398725122213364 0.390216946601868 0.385281890630722 0.397278338670731 0.396821230649948 0.413074195384979 0.417912304401398 0.432793349027634 0.46397402882576 0.505678534507751 0.860863089561462 1.08980989456177 0.589042246341705 0.622598230838776 0.662246704101562 0.712124645709991 0.754778325557709 0.823020577430725 0.848405957221985 0.897667586803436 0.98172253370285 1.12056493759155 1.20104229450226 1.28066658973694 1.33020663261414 1.50879979133606 1.54240942001343 1.57671177387238 1.79508471488953 1.98061192035675 2.14741349220276 2.33923506736755 2.55890703201294 2.79543209075928 3.07115340232849 3.44288182258606 3.85177612304688 4.58137989044189 5.66179132461548 6.9172682762146 8.38793182373047 10.6678829193115 10.325945854187 15.9713287353516 19.9794330596924 24.9080142974854 13.1503849029541 -2.4318630695343 -2.52117276191711 -2.41961097717285 -2.17787027359009 -1.84762978553772 -1.0993903875351 -0.541544795036316 0.256125509738922 1.00576305389404 1.24989497661591 1.36034047603607 1.44096720218658 0.72054922580719 -1.01501381397247 -2.2827889919281 -2.28163766860962 -2.48204731941223 -2.39310908317566 -1.90063679218292 -1.69112575054169 -1.46070826053619 -1.25953376293182 -1.21804261207581 -1.09747779369354 -0.843815863132477 -0.685907185077667 -0.5124831199646 -0.322186827659607 -0.180984511971474 -0.057541124522686 -0.00901212822645903 0.0879255533218384 0.276311188936234 0.465742170810699 0.649988174438477 0.755717933177948 0.807747960090637 0.828279554843903 0.569206535816193 0.715621531009674 1.2616902589798 1.61696863174438 1.86010956764221 1.88875770568848 2.01963138580322 2.62178874015808 3.89787840843201 7.05994558334351 7.85702610015869 8.92547702789307 9.4408483505249 9.83175563812256 10.6865758895874 11.0460119247437 14.2426586151123 14.4344778060913 8.45430469512939 4.22689485549927 9.50482559204102 1.13963317871094 1.02703583240509 0.25726529955864 -1.94278311729431 -2.27978110313416 -2.02434039115906 -1.76161730289459 -1.46755659580231 -1.14068746566772 -0.854329228401184 1.41743230819702 1.33049988746643 3.57322716712952 6.8720269203186 10.353196144104 8.36987400054932 5.46582984924316 6.12617015838623 1.73876655101776 1.80653977394104 2.28602123260498 2.94409203529358 3.4972608089447 3.83008456230164 4.07323884963989 4.14708948135376 4.12651491165161 4.26897764205933
2.08385443687439 1.77444088459015 1.98727238178253 2.64751577377319 4.15094232559204 4.29719495773315 6.71116399765015 8.56483459472656 6.50408887863159 7.31156253814697 11.0709047317505 6.28153991699219 1.41073775291443 1.38714158535004 1.44191706180573 1.486851811409 1.3947114944458 1.28084075450897 1.55613780021667 2.43818235397339 3.13638758659363 3.49748754501343 3.39719152450562 3.86915254592896 4.06414031982422 4.58356380462646 5.39382266998291 7.10824155807495 7.37786865234375 6.41324758529663 1.13781797885895 -0.0227219648659229 0.166312158107758 0.429126977920532 1.12048137187958 1.9078654050827 0.627417087554932 0.390841722488403 0.376822113990784 0.376018702983856 0.38374662399292 0.379874855279922 0.384277820587158 0.37918359041214 0.38503035902977 0.395235002040863 0.40477529168129 0.422416746616364 0.436902314424515 0.497674852609634 0.638659179210663 1.35365998744965 0.699078261852264 1.04289138317108 0.801948189735413 0.834581971168518 1.04432046413422 0.943278849124908 1.0635267496109 1.17482364177704 1.22312080860138 1.28045988082886 1.42925322055817 1.48159897327423 1.49289429187775 1.67702555656433 1.86058402061462 1.99085962772369 2.18383502960205 2.37706589698792 2.55489945411682 2.76023602485657 3.04497623443604 3.41470718383789 3.94922780990601 4.42393684387207 5.65269470214844 6.54395914077759 8.84910678863525 10.1331205368042 13.6542301177979 15.2206344604492 19.5108280181885 23.6686611175537 22.9521064758301 10.9152727127075 0.242370873689651 -2.34309864044189 -2.24234175682068 -1.99961400032043 -1.41392230987549 -0.592135488986969 -0.145942747592926 0.622626602649689 1.00858747959137 1.36923658847809 2.17043042182922 0.86299729347229 -0.56178891658783 -2.25288534164429 -2.68780565261841 -2.83832263946533 -2.85169434547424 -2.74168539047241 -2.35429286956787 -1.94385147094727 -1.86722946166992 -1.76665449142456 -1.42567312717438 -1.07304084300995 -0.75499701499939 -0.651647746562958 -0.505326390266418 -0.391330927610397 -0.324167996644974 -0.242010489106178 -0.142921879887581 -0.0223947446793318 0.102523110806942 0.278851538896561 0.333757549524307 0.437958300113678 0.79583066701889 1.14535892009735 1.3428281545639 1.72171401977539 1.91374146938324 2.38147234916687 2.85929226875305 2.88947892189026 4.19089651107788 6.87278842926025 7.4707293510437 8.02304363250732 8.27506828308105 8.5291576385498 9.10828876495361 9.55841064453125 9.57826805114746 10.9372034072876 10.9542331695557 10.3232069015503 7.57778215408325 4.90064191818237 0.675524055957794 -0.768309831619263 -2.71840810775757 -2.60215902328491 -2.4320695400238 -2.2546329498291 -1.86819708347321 -1.55252039432526 -1.27971518039703 -0.896445512771606 0.55348265171051 2.90035653114319 5.70198631286621 7.67598581314087 8.0195198059082 7.27279186248779 5.46009635925293 3.39776253700256 2.41896200180054 1.8667414188385 2.29722261428833 2.82371020317078 3.27843976020813 3.5695104598999 3.75613713264465 3.86281776428223 3.94897484779358 4.20292949676514
1.60302567481995 1.41940009593964 1.89379572868347 3.4498405456543 3.25844144821167 4.47989416122437 5.02791261672974 6.16480731964111 6.91038751602173 8.8492431640625 8.39799976348877 13.4827356338501 4.97581958770752 1.0031703710556 0.980290114879608 1.10127687454224 1.09393167495728 1.01546883583069 1.37548816204071 2.25905179977417 2.63834452629089 2.7716429233551 2.94977355003357 3.39129424095154 4.17222356796265 4.88776111602783 5.83531951904297 5.98114824295044 6.25001049041748 6.66635704040527 3.27231764793396 0.0605331249535084 0.161325484514236 0.351751118898392 1.14746379852295 2.22961282730103 1.1785444021225 0.409211248159409 0.364929914474487 0.372516244649887 0.372572511434555 0.370607167482376 0.369589805603027 0.375243008136749 0.376082301139832 0.385562747716904 0.390582889318466 0.397581666707993 0.411041408777237 0.465099096298218 0.544413864612579 0.637510478496552 0.841138243675232 1.81139302253723 1.34138977527618 0.890485167503357 0.92337703704834 1.06270456314087 1.13253211975098 1.18707013130188 1.25781333446503 1.38439238071442 1.42926633358002 1.43700063228607 1.58452475070953 1.75543391704559 1.87478244304657 2.04340934753418 2.1996705532074 2.3401505947113 2.53914856910706 2.75441837310791 3.08879041671753 3.52946138381958 3.85063505172729 4.53332662582397 5.29327535629272 7.17359590530396 8.51029300689697 12.2778997421265 13.0495014190674 16.2789287567139 17.2724838256836 19.7629623413086 21.2164115905762 16.1092700958252 6.82177591323853 -0.726537048816681 -2.22065830230713 -2.06560945510864 -1.71288657188416 -0.84093302488327 -0.188018500804901 0.620720744132996 1.09155118465424 2.06094646453857 4.33524513244629 4.46739435195923 3.3920259475708 5.23571538925171 -1.60322606563568 -3.09507250785828 -3.13279867172241 -2.98493218421936 -2.81727981567383 -2.48391604423523 -2.17962074279785 -2.03812575340271 -1.64203655719757 -1.16832053661346 -0.979773640632629 -0.88328093290329 -0.658531248569489 -0.416340082883835 -0.303177863359451 -0.157744720578194 -0.0812662318348885 0.0533910766243935 0.162338614463806 0.708583176136017 1.056187748909 1.03820812702179 1.08294451236725 1.22986030578613 1.53293514251709 1.7449152469635 1.8382875919342 2.00115323066711 2.54404902458191 3.68934512138367 6.31828737258911 6.80805206298828 7.28304576873779 7.15671443939209 7.33646106719971 7.81154012680054 8.10302448272705 7.81262016296387 7.60104417800903 7.55736541748047 7.76502180099487 7.27193021774292 5.2024941444397 1.31276512145996 -1.24138426780701 -2.87745499610901 -2.86198759078979 -3.01004481315613 -2.80385589599609 -2.47088098526001 -2.02610039710999 -1.62370383739471 -1.27519249916077 -0.0577937811613083 2.14292502403259 4.59765100479126 6.22484397888184 6.76312112808228 5.47258710861206 5.04649448394775 5.05023241043091 3.97934460639954 1.41023933887482 1.77529895305634 2.14310169219971 2.55410146713257 2.95395851135254 3.17791533470154 3.45105338096619 3.64180278778076 3.85872769355774 4.17559766769409
1.25661337375641 1.03099453449249 2.21871042251587 2.79547023773193 3.41547799110413 4.08410501480103 5.16831350326538 6.04594135284424 7.45705604553223 7.09842109680176 9.29981136322021 9.47166442871094 13.2181634902954 4.56857204437256 0.895832717418671 0.89812296628952 0.897297024726868 0.862314462661743 1.50627744197845 2.09999489784241 2.16043305397034 2.38006663322449 2.80511617660522 3.62836194038391 4.37120342254639 5.12620449066162 4.91526460647583 5.24751949310303 5.6535382270813 5.23283195495605 3.35683369636536 0.259979516267776 0.195261478424072 0.27772131562233 1.00166392326355 2.17376780509949 1.63812637329102 0.621332406997681 0.367861986160278 0.363790214061737 0.365597188472748 0.359581381082535 0.364041060209274 0.363618612289429 0.364986062049866 0.375775158405304 0.382328003644943 0.39577117562294 0.432653814554214 0.474350303411484 0.557726562023163 0.64639550447464 0.717423021793365 0.789447486400604 1.38576865196228 1.99745798110962 1.04188430309296 1.11555278301239 1.18461406230927 1.22744977474213 1.34267008304596 1.40077877044678 1.3839772939682 1.39898681640625 1.62799632549286 1.77391135692596 1.93098831176758 2.07007002830505 2.19265294075012 2.35853004455566 2.52019667625427 2.80999088287354 3.19824385643005 3.48773193359375 4.02770566940308 4.64448642730713 5.21288633346558 6.63079166412354 10.0135021209717 11.6100788116455 14.2841329574585 14.3803939819336 16.24094581604 16.2597675323486 17.45871925354 17.2123947143555 10.1921892166138 4.25141096115112 -2.10695695877075 -1.96771728992462 -1.70061790943146 -0.78243762254715 0.0960186421871185 0.817789196968079 1.51340591907501 3.48473000526428 5.33064699172974 6.36697053909302 6.22735452651978 10.8358116149902 5.37161016464233 -3.22788453102112 -3.2930908203125 -3.14115715026855 -2.93594145774841 -2.62887787818909 -2.39415788650513 -2.16861391067505 -1.89024674892426 -1.3180593252182 -1.08667004108429 -0.97035813331604 -0.724275648593903 -0.528655648231506 -0.363229125738144 -0.186175763607025 -0.0952988639473915 -0.00672999769449234 0.10763768851757 0.258434057235718 0.59319144487381 0.860853433609009 1.18491888046265 1.46863782405853 1.68865430355072 1.74394762516022 1.90271437168121 2.38866949081421 3.49478530883789 5.8671727180481 6.26780414581299 6.73978710174561 6.42744922637939 6.4672212600708 6.49346160888672 6.52347278594971 6.55437326431274 6.06204462051392 5.34123468399048 5.3112325668335 5.93182373046875 4.17276000976562 2.53876447677612 0.145566031336784 -2.59525656700134 -3.00041580200195 0.444243758916855 -3.15494108200073 -2.85319924354553 -2.53939771652222 -2.07678079605103 -1.68510758876801 -1.4044576883316 -0.0579637847840786 2.52079081535339 4.64276885986328 5.43062305450439 4.53679132461548 4.25697803497314 2.96055364608765 3.080735206604 2.8757586479187 0.879133582115173 1.31386566162109 1.72201037406921 2.12642645835876 2.50442886352539 2.84850645065308 3.24689316749573 3.4429144859314 3.69016599655151 4.14794492721558
1.06558310985565 0.911486089229584 1.26717531681061 2.33448028564453 3.23456358909607 4.19665145874023 5.32438230514526 6.33073806762695 6.41268157958984 8.21808910369873 6.85579013824463 9.48594379425049 8.4938325881958 6.9725923538208 1.36959862709045 0.824597179889679 0.705040752887726 1.06226456165314 1.59310972690582 1.81138145923615 2.13571190834045 2.39239192008972 2.7666323184967 3.45823097229004 4.38728475570679 4.22687578201294 4.50451374053955 4.64328193664551 4.33508682250977 4.01523733139038 2.75016212463379 1.04018759727478 0.229374200105667 0.266658425331116 0.366221308708191 1.77284169197083 2.23578548431396 0.825778305530548 0.363124221563339 0.357685685157776 0.357809990644455 0.358247220516205 0.359809160232544 0.390019059181213 0.37262561917305 0.380307257175446 0.388643205165863 0.424765288829803 0.465606063604355 0.548947274684906 0.603974163532257 0.649764060974121 0.744945526123047 0.811832070350647 0.874682128429413 1.13847458362579 2.22569727897644 1.18307030200958 1.20960903167725 1.36006057262421 1.37672173976898 1.35939645767212 1.34700334072113 1.47732019424438 1.62985908985138 1.74373936653137 1.95048809051514 2.06687450408936 2.23061800003052 2.36812901496887 2.62746143341064 2.93774747848511 3.22379493713379 3.73142695426941 4.236412525177 4.7058744430542 5.74287080764771 6.71293020248413 9.29450607299805 12.4449911117554 12.7221269607544 14.0150756835938 13.2624320983887 14.131196975708 14.8624420166016 15.6822357177734 13.3153066635132 8.28565216064453 2.08655834197998 -1.79573726654053 -1.38266468048096 -0.600771903991699 0.308290511369705 1.18706274032593 2.49882650375366 3.87346816062927 5.28293561935425 5.90711498260498 9.30411529541016 13.1060457229614 10.0503883361816 1.61934447288513 -3.34952688217163 -3.1915967464447 -3.00253748893738 -2.7511248588562 -2.50243282318115 -2.21601319313049 -1.96835970878601 -1.51556050777435 -1.23908507823944 -1.01197242736816 -0.819725155830383 -0.658854722976685 -0.482617825269699 -0.288585096597672 -0.125123500823975 -0.0850222855806351 0.0553648099303246 0.260920733213425 0.681520521640778 1.11005640029907 1.37435436248779 1.58126163482666 1.68739640712738 1.85826349258423 2.27481532096863 3.28188848495483 5.46953248977661 5.83484888076782 6.29609346389771 6.03898668289185 5.90570211410522 6.01318216323853 5.53622198104858 5.09701728820801 4.69572687149048 4.17078018188477 3.90529823303223 3.92105603218079 2.55957794189453 1.73367118835449 0.746220886707306 -0.914430618286133 -1.83036410808563 -0.672568678855896 -2.01310634613037 -3.17418622970581 -2.85513806343079 -2.37857675552368 -1.93354439735413 -1.71949052810669 -1.54604887962341 -0.220060348510742 0.97424441576004 2.90124702453613 4.37684631347656 3.5666229724884 2.15139985084534 1.4467591047287 0.153775170445442 0.393529832363129 0.668067336082458 1.0776515007019 1.47023797035217 1.84566187858582 2.208655834198 2.53797483444214 2.90975069999695 3.14179587364197 3.41851282119751 4.05285930633545
6.67954540252686 2.33146381378174 1.47095143795013 1.76982831954956 2.99697327613831 3.96887516975403 5.1044282913208 5.01006126403809 6.66948747634888 5.84496831893921 7.2612943649292 6.30274057388306 6.46692180633545 5.47202253341675 2.29459619522095 1.62423777580261 0.795379042625427 1.08365845680237 1.30859470367432 1.59973359107971 1.84388244152069 2.28433632850647 2.97425866127014 3.58113360404968 4.07893753051758 3.96242427825928 3.95300221443176 3.65939211845398 3.45391392707825 3.51506280899048 2.95343112945557 2.29095077514648 0.954708993434906 0.316115915775299 0.467305570840836 1.51485538482666 2.45282435417175 1.0758763551712 0.489166378974915 0.357325404882431 0.35481584072113 0.354256182909012 0.356664210557938 0.365978628396988 0.373145043849945 0.384191423654556 0.41375070810318 0.451337784528732 0.521365165710449 0.596736252307892 0.611421644687653 0.653087675571442 0.714713513851166 0.828335523605347 0.954517900943756 1.04557693004608 1.1467707157135 2.11239147186279 2.39340019226074 2.07729768753052 1.96311175823212 1.37418413162231 1.45415341854095 1.58673644065857 1.68536520004272 1.81240820884705 1.95947813987732 2.12207865715027 2.24238657951355 2.48203873634338 2.76158285140991 3.03652453422546 3.49456548690796 4.02721357345581 4.38573455810547 5.25827074050903 6.08229351043701 7.97837257385254 9.1734561920166 11.3869590759277 12.9599370956421 12.3309211730957 12.4055786132812 12.3359441757202 12.8527956008911 12.535719871521 11.8744630813599 9.39387989044189 6.13890886306763 -0.803373098373413 -1.14566457271576 -0.581855118274689 0.547888457775116 1.86693012714386 3.10163259506226 4.16456699371338 5.16213130950928 7.79873132705688 10.1992349624634 13.8668384552002 10.0697164535522 4.15456771850586 -3.30054521560669 -3.13066148757935 -2.99232029914856 -2.81301665306091 -2.5002007484436 -2.27904319763184 -2.06550455093384 -1.8298431634903 -1.49168932437897 -1.13296222686768 -0.949931204319 -0.793429315090179 -0.627614557743073 -0.429047882556915 -0.217687278985977 -0.120319291949272 0.10394261777401 0.544695436954498 1.00086891651154 1.27215480804443 1.47731137275696 1.57578718662262 1.75712311267853 2.21616721153259 3.14575910568237 5.13099002838135 5.46359920501709 6.02737998962402 5.85489368438721 5.71900272369385 5.55639457702637 5.31096220016479 4.81093215942383 3.94129872322083 3.23465657234192 2.66104817390442 2.28266477584839 1.95580184459686 0.0700102299451828 -0.326706022024155 -0.658680438995361 1.07501697540283 0.96002984046936 4.55346441268921 -0.490257799625397 -3.06870174407959 -2.74170637130737 -2.26381540298462 -1.89333915710449 -1.72958159446716 -1.39503335952759 -0.0975308418273926 0.0266213063150644 1.46089148521423 1.98908853530884 2.19067907333374 1.28085827827454 -0.0844072550535202 0.12028031796217 0.23321096599102 0.49669823050499 0.985523581504822 1.41562354564667 1.76142835617065 2.08058214187622 2.37728977203369 2.68986296653748 3.00767731666565 3.39243483543396 3.92640018463135
3.18493723869324 3.81487512588501 3.37563323974609 2.47143220901489 2.75342845916748 3.96743369102478 4.87764072418213 5.28134202957153 4.55922937393188 5.85200834274292 4.77497243881226 5.14794731140137 4.70383071899414 4.11494922637939 2.77894735336304 1.41415977478027 0.932058393955231 0.97322005033493 1.14105594158173 1.35797011852264 1.78254067897797 2.48979353904724 3.09510564804077 3.49811291694641 3.421067237854 3.68196868896484 3.3165295124054 3.07704877853394 2.97634434700012 2.90671539306641 2.86894679069519 2.98481678962708 1.87399804592133 0.475827783346176 0.936084449291229 1.66267931461334 2.41238617897034 1.22850954532623 0.431648701429367 0.542790710926056 0.432257205247879 0.53252375125885 0.36013662815094 0.370903640985489 0.381218314170837 0.406937390565872 0.443483203649521 0.501217305660248 0.573887586593628 0.610347211360931 0.615553557872772 0.588710904121399 0.668261349201202 0.794597208499908 0.973955094814301 1.05439686775208 1.12730884552002 1.28728461265564 1.93336641788483 3.25281119346619 3.83783888816833 2.28123927116394 1.94548463821411 1.78460502624512 1.80879628658295 1.90545034408569 2.05085635185242 2.21264362335205 2.44047594070435 2.69415163993835 2.9166407585144 3.28285717964172 3.65893769264221 3.98439741134644 4.71307992935181 5.46569776535034 7.11366891860962 8.24733638763428 9.97902393341064 10.7586078643799 12.1987257003784 12.8010568618774 11.5327606201172 10.6364183425903 10.9228973388672 10.3807029724121 9.24708080291748 8.34440135955811 7.02846002578735 3.34920954704285 -0.826246440410614 -0.188711509108543 1.22252345085144 2.35093927383423 3.19154691696167 4.55280780792236 6.88822841644287 8.29692649841309 10.0273103713989 12.7144937515259 10.5696239471436 3.74791932106018 -3.24162435531616 -3.09286093711853 -3.00790953636169 -2.79411888122559 -2.53550434112549 -2.26193857192993 -2.04914307594299 -1.80599927902222 -1.47102677822113 -1.28366887569427 -1.10148012638092 -1.00755178928375 -0.816259920597076 -0.617410898208618 -0.409268081188202 -0.175303712487221 0.0894868820905685 0.613444745540619 1.14902818202972 1.36100792884827 1.46865916252136 1.63620221614838 2.08341717720032 2.98651957511902 4.91752290725708 5.11463737487793 5.60494565963745 5.51120710372925 5.48061895370483 5.24624156951904 5.00238418579102 4.62653923034668 3.87577199935913 2.72361660003662 1.68588149547577 1.20154535770416 1.08833503723145 -0.578924477100372 -1.65866756439209 -2.76096415519714 -3.27872490882874 0.0315763987600803 3.99135088920593 6.22519731521606 5.21088600158691 0.681685864925385 -2.52750062942505 -2.26336908340454 -2.01980018615723 -1.87807250022888 -1.16313052177429 0.00344640645198524 0.193920001387596 -0.0702516436576843 -0.180191963911057 -0.424723565578461 -0.393845826387405 -0.0752241387963295 0.157174006104469 0.270801693201065 0.384637653827667 0.969192504882812 1.47666275501251 1.79923343658447 2.102454662323 2.35816693305969 2.59852504730225 2.98900723457336 3.37282943725586 3.92533111572266
2.05300211906433 2.34161806106567 3.68920660018921 4.93454647064209 3.4471378326416 3.98610758781433 4.41092538833618 5.13041210174561 4.84200477600098 3.96342730522156 3.84646463394165 3.75101947784424 3.49700474739075 3.23804140090942 3.37242794036865 2.54823136329651 0.943881690502167 1.0123462677002 1.08554005622864 1.4037424325943 1.97933948040009 2.62385058403015 2.95939993858337 2.94436860084534 3.12137651443481 3.19451999664307 3.05945897102356 2.60756182670593 2.66375613212585 2.58022665977478 2.74659156799316 2.45241951942444 1.95547044277191 0.89200234413147 1.28097319602966 1.90669310092926 2.47057437896729 1.55445444583893 0.933290421962738 0.88913905620575 0.793194174766541 0.911697685718536 0.545301914215088 0.527559280395508 0.562088310718536 0.441252797842026 0.492606818675995 0.549742221832275 0.597246408462524 1.35054171085358 0.587512195110321 0.55304354429245 0.579795181751251 0.74926370382309 0.893632471561432 1.04799032211304 1.19236660003662 1.28550863265991 1.34313762187958 1.88837015628815 2.23091506958008 3.30969166755676 3.37648987770081 2.86166262626648 3.19308376312256 2.40794110298157 2.15138483047485 2.40191698074341 2.64423847198486 2.82473874092102 3.13201427459717 3.41061568260193 3.6448221206665 4.26290655136108 4.94469451904297 6.34925174713135 7.34504318237305 8.77420806884766 9.5168571472168 10.7018337249756 10.4630136489868 11.0720319747925 10.179669380188 9.52277374267578 8.6841459274292 8.14639568328857 7.08320140838623 6.62626457214355 5.71493339538574 5.47165870666504 0.26290625333786 0.187178641557693 1.4612078666687 2.62442517280579 3.76683568954468 6.04948759078979 7.4781756401062 8.97724437713623 10.2811012268066 12.4009027481079 9.51080131530762 3.3489978313446 -3.17544150352478 -2.89073133468628 -2.86772561073303 -2.69409584999084 -2.47745990753174 -2.18891501426697 -1.97874176502228 -1.76131248474121 -1.61797738075256 -1.41366314888 -1.35652685165405 -1.25417304039001 -1.13921105861664 -0.956912517547607 -0.634868562221527 -0.284253031015396 0.213802576065063 0.779068112373352 1.064173579216 1.31584441661835 1.50804662704468 1.90924215316772 2.47625350952148 3.7320761680603 4.92185544967651 5.31737470626831 5.11712789535522 5.00194311141968 4.87238931655884 4.67555952072144 4.34645414352417 3.78442072868347 4.87338924407959 1.60964941978455 0.710871636867523 0.264938980340958 -1.74429261684418 -2.35233020782471 -3.28196334838867 -3.6426248550415 -2.58817148208618 0.554403424263 4.43967580795288 4.73682451248169 4.60542678833008 3.17661714553833 -2.30735015869141 -2.17233157157898 -1.9983845949173 0.620086491107941 -0.592220664024353 0.0617947913706303 -0.13302107155323 -0.371600806713104 -0.997282743453979 -0.754642963409424 -0.474950283765793 -0.115644462406635 0.229456141591072 1.10139679908752 0.581950187683105 0.727656424045563 1.2668639421463 1.81171691417694 2.06937050819397 2.31528782844543 2.63568878173828 2.96856427192688 3.37491893768311 3.80230093002319
2.21567296981812 2.91285252571106 3.30473375320435 3.93023943901062 3.74404740333557 3.87061905860901 4.57821035385132 4.07958698272705 4.99717807769775 3.84580159187317 2.93295192718506 2.96181869506836 2.76923370361328 3.03660702705383 3.16140222549438 2.93794941902161 1.77370047569275 1.08110404014587 1.27054190635681 1.65400218963623 2.18067264556885 2.48716282844543 2.49584317207336 2.63283252716064 2.69579887390137 2.67340064048767 2.76426601409912 2.44773364067078 2.34171772003174 2.38633227348328 2.1723837852478 1.94993245601654 1.91077935695648 1.27379751205444 1.63271188735962 2.25947237014771 3.02224040031433 3.08973097801208 2.93187999725342 1.67518723011017 1.24391865730286 1.16082692146301 0.978676676750183 0.902629852294922 0.628653287887573 0.491304069757462 0.537680864334106 0.576860785484314 1.0025475025177 2.40019822120667 1.42355263233185 0.504739344120026 0.556660234928131 0.639863014221191 0.775135517120361 0.985734939575195 1.18148946762085 1.25893676280975 1.28338265419006 1.4438990354538 1.57547771930695 1.68523585796356 1.81732749938965 2.09510517120361 1.99040794372559 2.03341460227966 2.12494945526123 2.45484018325806 2.65514421463013 2.9234344959259 3.14118647575378 3.33015155792236 3.87367725372314 4.50852966308594 5.72723579406738 6.64244174957275 7.83783102035522 8.49980354309082 9.45359897613525 9.42459106445312 10.1738739013672 9.66606044769287 8.47175693511963 5.54375028610229 5.3771538734436 4.94299554824829 4.83793783187866 4.20597553253174 4.22230291366577 3.65046787261963 2.42203783988953 0.796642363071442 1.74545800685883 2.52010774612427 3.98273205757141 6.43475675582886 8.12902927398682 9.56603908538818 10.5357990264893 13.5120992660522 11.6806783676147 4.81112766265869 -2.74181628227234 -3.01759886741638 -2.87580633163452 -2.61684060096741 -2.35578966140747 -2.12083172798157 -1.94168865680695 -1.78842771053314 -1.65065586566925 -1.5691145658493 -1.55551517009735 -1.52330875396729 -1.48595476150513 -1.72875189781189 -1.65379822254181 -1.2051807641983 -0.169491693377495 0.778734982013702 1.10470998287201 1.23976969718933 1.43060910701752 1.89475107192993 2.69004917144775 4.43105602264404 4.66126823425293 4.95094966888428 4.74163055419922 4.49070930480957 4.3272385597229 4.06337833404541 3.55934500694275 3.09586596488953 3.81075930595398 1.48071849346161 0.0214952286332846 -1.74497330188751 -2.93864488601685 -3.95749378204346 -3.93963479995728 -3.81077337265015 -1.67261517047882 1.31154870986938 2.70906162261963 2.61695289611816 1.90915834903717 1.4435156583786 1.35671067237854 -2.02387475967407 -1.17381060123444 1.82955360412598 0.960783064365387 0.124566733837128 2.42387962341309 7.30630254745483 2.95878744125366 -0.634556472301483 -0.389446914196014 -0.0485174171626568 0.254977941513062 0.502174854278564 0.495887249708176 0.744429886341095 1.13993167877197 1.6305136680603 1.97757303714752 2.34768867492676 2.67496395111084 2.99774122238159 3.31290245056152 3.65297293663025
3.25644111633301 3.3781840801239 3.30810499191284 3.42956161499023 3.38590908050537 4.08404588699341 3.65344381332397 4.32329034805298 3.51181888580322 3.40430450439453 3.00505042076111 2.39174175262451 2.45210456848145 2.43201732635498 2.4751443862915 2.1591260433197 1.807253241539 1.24158704280853 1.56257367134094 1.93326652050018 2.11817026138306 2.26197052001953 2.43293046951294 2.5737030506134 2.50289034843445 2.32158184051514 2.0981433391571 2.07026410102844 1.71030449867249 1.49827933311462 1.30529594421387 1.11287271976471 1.08261811733246 1.26832568645477 1.55499172210693 2.04384708404541 2.07572531700134 2.08477854728699 2.92642712593079 2.97759175300598 1.58848774433136 1.00852477550507 0.784569978713989 0.6507608294487 0.487500965595245 0.532540738582611 0.570285618305206 0.77795135974884 1.74218273162842 3.36483287811279 2.61731934547424 0.552964866161346 0.48155415058136 0.504116356372833 0.677569627761841 0.780172944068909 1.00165271759033 1.17801105976105 1.32575666904449 1.47258627414703 1.59776723384857 1.69382214546204 1.80301630496979 1.87588965892792 1.99560678005219 2.04430031776428 2.17605304718018 2.32441639900208 2.70527386665344 2.90708374977112 3.07370209693909 3.554119348526 4.14860105514526 5.2177906036377 6.05644083023071 7.06653785705566 7.67482995986938 8.43476581573486 8.49099349975586 9.11531352996826 9.26664733886719 11.405237197876 9.20813846588135 2.40037798881531 1.43520045280457 1.59294927120209 1.30357420444489 1.53250503540039 1.34402525424957 1.15937864780426 0.670478105545044 1.10633027553558 1.83443129062653 3.0935206413269 4.69679069519043 6.28066778182983 8.27983474731445 9.73770904541016 11.9018039703369 13.3830671310425 13.8933839797974 7.46576452255249 0.539110839366913 -3.01763415336609 -2.88814377784729 -2.62679386138916 -2.24556612968445 -2.02945780754089 -1.89313900470734 -1.75604712963104 -1.68384206295013 -1.67759716510773 -1.63103067874908 -1.68027603626251 -1.86465656757355 -1.92834985256195 -2.02093124389648 -2.04836010932922 -1.5945987701416 0.469688266515732 0.937433063983917 1.17210984230042 1.58502590656281 2.45978331565857 4.08348608016968 4.3777928352356 4.80002737045288 5.09378147125244 4.44811296463013 4.08541297912598 3.72163391113281 3.26330161094666 2.56292390823364 2.70710206031799 3.63625860214233 4.07213640213013 2.76153373718262 1.64468932151794 -3.99719142913818 -4.17550325393677 -4.13188505172729 -3.53553247451782 -1.35646736621857 0.159779652953148 0.62467896938324 1.44425570964813 1.03478980064392 1.4204249382019 2.58956742286682 -1.0107843875885 -0.936319530010223 -0.254668653011322 0.981988906860352 2.05389451980591 5.15132331848145 5.47319984436035 7.10495519638062 -0.436690449714661 -0.264071494340897 0.0442681051790714 0.355800062417984 0.481596827507019 0.573737382888794 0.766891598701477 1.13719797134399 1.53209447860718 1.98331093788147 2.36867713928223 2.73337340354919 3.04633688926697 3.30608463287354 3.5917067527771
2.93721723556519 3.09401941299438 3.22314858436584 3.16998624801636 3.55143165588379 3.15687727928162 3.74860906600952 3.08129024505615 2.89100408554077 2.82474160194397 2.54266595840454 2.31229019165039 2.07097673416138 1.93122446537018 1.64730167388916 1.57623934745789 1.32695686817169 1.50057291984558 1.86811888217926 2.00581121444702 2.10623741149902 2.20746636390686 2.26610279083252 1.9103752374649 1.56403613090515 1.43344759941101 1.39180016517639 1.57723557949066 1.51220309734344 0.950257301330566 0.794941246509552 0.911620557308197 1.00832200050354 1.15604364871979 1.41941606998444 1.66433930397034 1.65986764431 1.72606647014618 1.78437829017639 1.41918921470642 1.00085282325745 0.779570579528809 0.725899636745453 0.757335543632507 0.55472856760025 0.568039000034332 0.714411675930023 1.34495210647583 2.49380993843079 4.38138103485107 5.99536943435669 4.54447031021118 0.475082248449326 0.422845721244812 0.494036108255386 0.685445189476013 0.831283450126648 1.02349901199341 1.30263304710388 1.47231733798981 1.58710205554962 1.6808226108551 1.74677634239197 1.87633812427521 1.95269060134888 2.06976509094238 2.20331215858459 2.37772417068481 2.71964001655579 2.89379191398621 3.29084300994873 3.8322811126709 4.7975902557373 5.56487131118774 6.43640756607056 6.99136877059937 7.61727142333984 7.67301988601685 8.19263076782227 8.31188774108887 9.47692680358887 19.7203979492188 18.1900482177734 1.22292304039001 -0.0420572198927402 -0.753911793231964 -0.933261513710022 -0.736565589904785 -0.278456509113312 0.0550471395254135 0.417130321264267 0.851941525936127 1.82045793533325 3.30502557754517 4.64110088348389 6.22374582290649 8.0605354309082 9.53433322906494 11.2525625228882 12.3144483566284 15.0951042175293 9.9261589050293 5.19046115875244 -2.24916243553162 -2.81401538848877 -2.48164296150208 -2.16423749923706 -1.93679559230804 -1.82041072845459 -1.7605117559433 -1.70513761043549 -1.74939966201782 -1.78359580039978 -1.91806161403656 -2.12929224967957 -2.24487447738647 -2.08484506607056 -2.33512473106384 -2.35718894004822 -1.04114353656769 0.688955187797546 1.30195188522339 2.16303205490112 3.73932480812073 4.03467464447021 4.50456809997559 4.4445219039917 4.34836959838867 3.9288113117218 3.60074710845947 3.11778807640076 2.55262660980225 1.9301792383194 2.69519925117493 3.54767417907715 3.05218696594238 5.04329299926758 4.91782474517822 2.05451202392578 -2.3526017665863 -4.00583982467651 -2.64991784095764 -0.958131968975067 -0.759906470775604 -0.564246952533722 0.137420028448105 0.993190407752991 4.45013189315796 7.32057571411133 6.15628719329834 0.912093639373779 -0.415892392396927 0.5652015209198 3.98154282569885 3.92092323303223 5.45633459091187 8.01369762420654 2.2799084186554 -0.140401095151901 0.0889417305588722 0.343260556459427 0.470461636781693 0.626364707946777 0.855425596237183 1.1590234041214 1.56941890716553 1.99070572853088 2.37975811958313 2.78316831588745 3.10150122642517 3.35364627838135 3.51377987861633
3.00430035591125 3.12738418579102 3.03761196136475 3.2648913860321 2.78743386268616 3.22176384925842 2.72817420959473 2.40933132171631 2.33864903450012 2.23451852798462 2.13655042648315 1.97992408275604 1.63187217712402 1.39998841285706 1.38951742649078 1.57264876365662 1.45835793018341 1.8018102645874 3.31121277809143 2.2834575176239 2.64870381355286 1.74699091911316 1.41992366313934 1.17169880867004 0.997342526912689 0.950993478298187 1.05259311199188 1.05439877510071 1.24210095405579 0.787723243236542 0.788396418094635 0.868582367897034 0.988636136054993 1.16270005702972 1.23028600215912 1.30276334285736 1.25830900669098 1.24791896343231 1.25585186481476 1.39045071601868 1.14587068557739 0.955713331699371 0.939972877502441 1.07514250278473 0.922358870506287 0.754177510738373 1.21983218193054 1.90471029281616 2.54502439498901 3.70508313179016 4.11047124862671 7.1981782913208 1.54071927070618 0.450312674045563 0.490620255470276 0.569534838199615 0.700495004653931 0.953304350376129 1.18151688575745 1.43509554862976 1.55999660491943 1.65786731243134 1.75223529338837 1.82445681095123 1.9640851020813 2.1115460395813 2.24425458908081 2.38984656333923 2.56167888641357 3.02391719818115 3.59227252006531 4.47257804870605 5.17625284194946 5.94060373306274 6.44831514358521 6.94928121566772 7.00719356536865 7.4029393196106 7.44450616836548 7.84963512420654 13.3299827575684 25.8842296600342 19.6890563964844 7.1900110244751 -0.819376170635223 -1.3070821762085 -1.31112313270569 -0.997501313686371 -0.620791375637054 -0.181074023246765 0.248219355940819 0.832516729831696 1.67954099178314 2.97585129737854 4.51431751251221 5.8597936630249 7.55975723266602 9.05811882019043 10.5645456314087 11.8830194473267 13.1794900894165 10.831395149231 6.92905759811401 0.328974395990372 -2.6767213344574 -2.34784817695618 -2.03667187690735 -1.82480347156525 -1.3535441160202 -1.72178530693054 -1.56403911113739 -1.81947016716003 -1.94633662700653 -2.20465159416199 -2.45680546760559 -2.59836101531982 -1.73521518707275 -2.43201065063477 -2.56950044631958 -1.92851412296295 0.239183753728867 1.90383851528168 3.37430477142334 3.66734027862549 4.13235855102539 4.15675926208496 4.18052005767822 3.89757418632507 3.40850949287415 2.81590247154236 2.35368680953979 1.74769365787506 1.30951642990112 2.63960146903992 3.0012891292572 3.70789670944214 4.05442333221436 4.79585790634155 5.25006437301636 -0.236826494336128 -2.70057010650635 -1.59756755828857 -0.789763927459717 -0.793845415115356 -1.21705389022827 0.134897351264954 2.0568528175354 4.52267122268677 8.46883869171143 7.91702651977539 7.75943613052368 2.3505380153656 2.66571092605591 3.14725875854492 4.64031362533569 5.72262239456177 6.63888311386108 4.88487720489502 -0.109801098704338 0.0859189406037331 0.359610259532928 0.692599356174469 1.91531419754028 1.06572234630585 1.35896837711334 1.70111393928528 2.08986020088196 2.47105407714844 2.92735934257507 3.26308035850525 3.44395995140076 3.50496912002563
2.89646053314209 2.89932823181152 3.22871279716492 2.58874773979187 2.81559157371521 2.38006281852722 2.17134070396423 1.85997235774994 1.91048216819763 1.87016642093658 1.84149706363678 1.85327339172363 1.59405887126923 1.5087308883667 2.14314293861389 4.64985847473145 4.94736480712891 2.53286933898926 1.75863814353943 1.74833047389984 1.398552775383 1.25215268135071 0.949653685092926 0.733455717563629 0.685191869735718 0.739697456359863 0.761562824249268 0.728339374065399 0.796617090702057 0.650920808315277 0.76155424118042 0.84470272064209 0.94591236114502 1.06359374523163 1.08258330821991 1.12727892398834 1.09309124946594 1.08592450618744 1.0447598695755 1.09430944919586 1.06294703483582 1.00163972377777 0.949021220207214 0.80837082862854 0.638350129127502 0.971803188323975 1.5585663318634 2.3019061088562 3.16189312934875 3.87522459030151 5.56612920761108 7.61556386947632 1.31106603145599 0.484785854816437 0.481063157320023 0.459127932786942 0.678564727306366 0.903794050216675 1.12675809860229 1.37182700634003 1.53086948394775 1.65008854866028 1.73523712158203 1.84017014503479 1.98305678367615 2.13162517547607 2.29555916786194 2.40831995010376 2.76835417747498 3.27157425880432 4.1007513999939 4.77374935150146 5.46911954879761 5.95219612121582 6.4022741317749 6.47826671600342 6.80660676956177 6.79966402053833 7.1541895866394 9.37521648406982 16.6054744720459 27.851879119873 23.686954498291 9.72041988372803 3.55303382873535 -0.855484008789062 -1.37194442749023 -1.19699990749359 -0.828064620494843 -0.40932834148407 0.0898716747760773 0.00432343641296029 0.920670628547668 2.65515446662903 3.90483903884888 5.16658926010132 6.88138294219971 8.16630363464355 9.55099773406982 11.0593023300171 11.7046499252319 11.8520193099976 8.05546283721924 3.4980103969574 -2.41522455215454 -2.18289399147034 -1.90575218200684 -1.76332294940948 -1.19219696521759 -0.931581139564514 -1.61133360862732 -1.1167494058609 2.06716871261597 -2.57781529426575 -1.98958551883698 -2.68294358253479 -2.63520216941833 -2.39751768112183 -2.62770771980286 -2.13575768470764 0.373769640922546 2.92801189422607 3.33161759376526 3.73826479911804 3.7670533657074 3.84768509864807 3.69382667541504 3.58143782615662 3.24328875541687 2.21258330345154 1.5199339389801 0.895378947257996 1.87431168556213 2.54786014556885 3.52014374732971 3.90642166137695 3.5335385799408 4.11012554168701 4.27800035476685 -1.2464771270752 -2.14897727966309 -1.77404224872589 -1.60835754871368 -1.23142981529236 -0.776567757129669 0.860863089561462 2.63804006576538 3.82464551925659 4.33322858810425 5.77555990219116 4.60174131393433 4.69580030441284 3.05824065208435 4.25924491882324 5.15995597839355 5.15338325500488 4.57587623596191 5.29912137985229 -0.195583522319794 0.0977041870355606 0.624616205692291 1.15163493156433 0.955963909626007 1.31987059116364 1.65108251571655 1.95641720294952 2.30487275123596 2.72783017158508 3.13117694854736 3.41392779350281 3.50452876091003 3.57554912567139
2.6743745803833 3.02542519569397 2.80953335762024 3.19399857521057 2.25777053833008 1.9542373418808 1.48759996891022 1.56058084964752 1.57202100753784 1.59028041362762 1.69757199287415 2.14785981178284 3.46960139274597 4.03287506103516 3.29648303985596 1.68357467651367 1.30654907226562 1.19263815879822 1.05666553974152 0.995608031749725 0.926190257072449 0.767956674098969 0.561908960342407 0.49644461274147 0.49732506275177 0.51542466878891 0.498869657516479 0.408057659864426 0.578675627708435 0.667374193668365 0.72115820646286 0.818031787872314 0.923817574977875 0.953218579292297 0.992343604564667 1.00670754909515 1.01591157913208 0.99357283115387 1.07254183292389 1.17004776000977 0.817759454250336 0.7238489985466 0.594195902347565 0.622295320034027 0.67967814207077 1.277339220047 1.91289234161377 2.42883324623108 2.91414833068848 4.34297657012939 5.9757833480835 6.88393449783325 0.660505831241608 0.419312715530396 0.357819229364395 0.48815330862999 0.647296726703644 0.835690021514893 1.04759979248047 1.34933793544769 1.54697048664093 1.62171626091003 1.73591709136963 1.87215876579285 1.99921989440918 2.17978835105896 2.29809784889221 2.41548633575439 2.7000207901001 3.79068517684937 4.43282032012939 5.04276657104492 5.49643278121948 5.87656450271606 5.93030071258545 6.19219446182251 6.18772125244141 6.52890396118164 7.66735458374023 12.9998846054077 17.7605876922607 25.1590957641602 29.897762298584 17.0092678070068 7.46716976165771 4.03002023696899 -0.39432692527771 -1.16671895980835 -0.966384708881378 -0.523908913135529 -0.199098333716393 0.065390482544899 0.531751215457916 1.73216593265533 3.2763934135437 4.49032926559448 5.88727331161499 7.1479549407959 8.72754669189453 10.1967058181763 10.6219244003296 11.7042055130005 9.11353206634521 7.0530161857605 4.72001647949219 -0.82309353351593 -1.52299737930298 -1.72557973861694 -1.08939468860626 -0.0862772166728973 -0.693623065948486 1.30416321754456 8.79499435424805 -1.73959648609161 -2.72222399711609 -2.81867170333862 -2.7834575176239 -2.63655209541321 -2.31847143173218 -1.22947251796722 1.61164546012878 2.69513249397278 3.32122302055359 3.43204879760742 3.57876396179199 3.09555697441101 3.00569844245911 2.67415475845337 2.18519926071167 2.18193745613098 1.93920361995697 1.65058434009552 2.04169678688049 2.74646615982056 3.0952832698822 2.97768187522888 2.91402792930603 2.05174326896667 0.616725444793701 -2.17128968238831 -2.49806118011475 -2.91478300094604 -3.17986035346985 -2.24104928970337 -0.284079045057297 1.31670892238617 2.94491481781006 3.03839373588562 3.80973339080811 3.44769668579102 2.64284348487854 3.20863080024719 3.97154664993286 4.87652015686035 4.97286987304688 4.21338748931885 3.80506610870361 5.4557409286499 3.15065503120422 0.22083193063736 0.97993528842926 1.47054433822632 1.15065658092499 1.54644095897675 1.90764045715332 2.24342203140259 2.5846700668335 2.92502355575562 3.2049081325531 3.2985622882843 3.37419533729553 3.54623794555664
2.6492235660553 2.48545503616333 2.68915200233459 2.20510077476501 1.9411039352417 1.32271218299866 1.32300758361816 1.34357988834381 1.35903358459473 1.49627947807312 1.65908300876617 2.60768485069275 1.94495725631714 1.27046251296997 1.35907089710236 1.82920622825623 1.07315933704376 0.952641427516937 0.742111682891846 0.66603809595108 0.538127958774567 0.359219491481781 0.314985364675522 0.326976388692856 0.325256407260895 0.286319345235825 0.295377343893051 0.392980545759201 0.479358732700348 0.694016754627228 0.676370680332184 0.794273138046265 0.851369440555573 0.892277657985687 0.928842067718506 0.955731689929962 1.05102181434631 0.98974883556366 1.00184893608093 1.58658623695374 0.678981006145477 0.576785087585449 0.571633994579315 0.63003808259964 0.845806658267975 1.42375719547272 2.09927248954773 2.69945526123047 3.6127815246582 4.61372184753418 5.95152759552002 6.32781314849854 2.16145062446594 0.313543826341629 0.381284981966019 0.551457941532135 0.658322036266327 0.821575582027435 1.03824734687805 1.3598370552063 1.51991820335388 1.62617862224579 1.74874913692474 1.91157853603363 2.03553676605225 2.16461586952209 2.28913593292236 2.54425072669983 2.97266292572021 3.66737270355225 4.68519878387451 5.10513687133789 5.42272281646729 5.48555994033813 5.69675302505493 5.69131326675415 5.93531036376953 6.11496734619141 10.5038290023804 13.5977220535278 17.6475868225098 24.0357227325439 31.6044063568115 27.5917129516602 13.8291759490967 7.47615337371826 6.12286615371704 2.52013897895813 -0.616302967071533 -0.482016742229462 -0.112776629626751 0.042353767901659 0.38911360502243 1.2548143863678 1.6452169418335 3.08038187026978 4.56260251998901 6.49690675735474 7.8707070350647 9.58513641357422 10.706823348999 11.5970230102539 10.269458770752 7.69070911407471 7.71043968200684 3.74853491783142 1.4110996723175 0.356038928031921 1.51139497756958 1.68294668197632 1.47390353679657 6.31175374984741 9.9023323059082 6.93547344207764 0.731443226337433 -2.79096651077271 -2.74862766265869 -2.41312670707703 -1.46859169006348 0.209433659911156 1.67439901828766 2.62480211257935 2.91377186775208 3.27233052253723 3.03983068466187 2.51291370391846 2.21147203445435 2.02120542526245 1.75159192085266 1.37195408344269 1.0337198972702 1.70100164413452 2.21177196502686 2.39055967330933 1.85972511768341 1.79718375205994 0.363386183977127 -1.40691649913788 -2.05447340011597 -2.46331453323364 -3.30281782150269 -3.97728514671326 -3.87625217437744 -2.64523410797119 -0.198189675807953 1.5958868265152 2.11363101005554 3.07373809814453 2.48045039176941 2.96687960624695 3.67910623550415 3.04009604454041 3.69741773605347 4.47933721542358 6.31250762939453 6.5825719833374 5.20028114318848 3.70080757141113 2.59224724769592 0.910616159439087 1.36594939231873 2.48533535003662 1.31595289707184 1.66116654872894 2.03294658660889 2.42060422897339 2.75425362586975 2.990567445755 3.12594556808472 3.2810161113739 3.48095273971558 3.6369616985321
2.16564512252808 2.43549561500549 2.04386472702026 1.84614622592926 2.10017919540405 1.28071737289429 1.25133895874023 1.18134307861328 1.24558663368225 1.36685335636139 1.85543632507324 1.42781186103821 1.17139434814453 1.27342736721039 2.71232557296753 3.59750556945801 1.0815087556839 0.748600780963898 0.550466001033783 0.29880166053772 0.167977228760719 0.109957933425903 0.100978352129459 0.160413175821304 0.120751433074474 0.168419599533081 0.263990223407745 0.355102062225342 0.442657619714737 0.646676599979401 0.634619951248169 0.724207043647766 0.824614346027374 0.893139660358429 0.921366631984711 0.91771674156189 0.853324890136719 0.791245102882385 0.807742238044739 1.45445263385773 0.601505041122437 0.509594678878784 0.565439820289612 0.761943161487579 1.07110786437988 1.4951651096344 1.92059397697449 3.03271842002869 3.92492532730103 5.06131172180176 6.96271371841431 7.87983894348145 5.68837404251099 1.42425727844238 0.500169038772583 0.565502643585205 0.683953642845154 0.839845597743988 1.05820369720459 1.32896268367767 1.52747178077698 1.65041124820709 1.78683996200562 1.94293677806854 2.04898381233215 2.16395211219788 2.40196323394775 2.7981333732605 3.43298625946045 4.00950193405151 4.52164459228516 5.04118776321411 5.09129619598389 5.26287746429443 5.26591396331787 5.46852350234985 5.57377910614014 6.82222747802734 11.020245552063 13.556097984314 17.2709274291992 21.2946758270264 25.1847019195557 32.1521530151367 25.2000179290771 13.6155385971069 8.47103118896484 6.95273923873901 7.17801189422607 5.171875 3.84064698219299 0.628701627254486 0.694666385650635 0.732440412044525 0.834701895713806 1.70406556129456 3.60054707527161 5.08483457565308 7.15693044662476 8.94730186462402 10.1802778244019 9.15940570831299 6.58793878555298 6.31352853775024 5.2247953414917 5.01455688476562 3.48569226264954 3.16267323493958 4.31238651275635 1.20273065567017 3.67074990272522 5.90333032608032 4.94309854507446 4.45579624176025 2.04810643196106 0.914334058761597 -0.564319372177124 -1.7046924829483 -0.428233951330185 0.45054230093956 1.71247470378876 2.35927152633667 2.8403205871582 2.9310929775238 3.88093614578247 2.08860206604004 1.80822253227234 1.41289043426514 1.31447720527649 1.15245568752289 0.780527353286743 1.25657987594604 1.72375798225403 1.93246912956238 1.61131036281586 0.456785053014755 -1.09514558315277 -1.52143371105194 -0.940040469169617 -0.443509668111801 -0.206245467066765 -2.02018737792969 -3.39473676681519 -2.05346417427063 -0.317337661981583 1.77204740047455 2.40518808364868 2.15462756156921 1.99523413181305 2.84641885757446 2.84706497192383 3.96584796905518 4.29185247421265 4.34251546859741 7.36299085617065 11.8152475357056 12.6637477874756 8.37441158294678 4.92595529556274 1.54645276069641 1.45731484889984 1.00645232200623 1.39643824100494 1.74919843673706 2.09934520721436 2.45819711685181 2.76149296760559 3.00590825080872 3.14389514923096 3.29527497291565 3.47626733779907 3.58250951766968
2.21248817443848 1.9112194776535 1.69277274608612 1.28407764434814 1.27253007888794 1.23280107975006 1.12102091312408 1.09681057929993 1.07845151424408 1.31840682029724 1.40114057064056 1.14864492416382 1.23969376087189 1.73976373672485 2.75487947463989 3.21269845962524 1.64510428905487 0.953463315963745 0.270655483007431 0.00489429058507085 -0.0735252872109413 -0.0998915210366249 -0.0837211310863495 -0.0482550039887428 0.0334028117358685 0.119308970868587 0.206888526678085 0.312429368495941 0.407185822725296 0.590930283069611 0.698098957538605 0.765288054943085 0.791413724422455 0.799107730388641 0.754394948482513 0.730033695697784 0.701331377029419 0.671884119510651 0.678458869457245 1.1532860994339 0.798283636569977 0.522915184497833 0.689455628395081 0.972114384174347 1.32995271682739 1.69712197780609 2.18140840530396 3.22530841827393 4.12549829483032 5.74297571182251 7.75704145431519 8.51168918609619 7.79766941070557 3.57029581069946 0.626402974128723 0.62348747253418 0.684266865253448 0.837184607982635 1.05660963058472 1.34453248977661 1.54765868186951 1.69595503807068 1.83384096622467 1.94817221164703 2.07895612716675 2.27055430412292 2.63101029396057 3.23536944389343 3.75896167755127 4.23468685150146 4.61435794830322 4.8632345199585 4.91475915908813 4.89191913604736 5.05894136428833 5.12390995025635 5.27688503265381 8.06372737884521 10.9905490875244 13.2539701461792 15.5298948287964 19.5259265899658 23.9066219329834 25.1414337158203 28.6627540588379 22.8198909759521 15.6649084091187 9.65083312988281 12.7098979949951 12.4430408477783 9.82989501953125 8.31697750091553 5.2345085144043 3.32364130020142 1.17103433609009 1.86163341999054 3.42735242843628 4.67535400390625 6.92209386825562 8.45272159576416 8.83735847473145 6.54597759246826 5.32181167602539 4.36063766479492 4.56427192687988 3.33892846107483 2.68075156211853 3.24303841590881 7.10967302322388 6.85137176513672 3.41321444511414 2.59556317329407 2.50701785087585 3.01149988174438 2.27973484992981 3.29217958450317 8.91609954833984 1.34255790710449 0.0686304420232773 0.943574547767639 1.6739364862442 2.33641886711121 2.6162531375885 4.60417890548706 5.81466388702393 3.29389333724976 3.38856053352356 3.7641544342041 3.45504975318909 3.21784996986389 1.39324057102203 2.1722149848938 4.05035781860352 4.40511846542358 3.85220503807068 2.22975754737854 0.202014729380608 -0.248475462198257 0.870356023311615 0.345877677202225 0.0681756362318993 -1.32456266880035 -2.37073445320129 -1.35402917861938 0.0496094673871994 0.588666975498199 2.17416429519653 2.00284719467163 2.40128970146179 2.44789028167725 3.11343455314636 3.65779399871826 3.98231101036072 6.03250980377197 8.95433807373047 9.87426090240479 7.02071046829224 5.12298965454102 4.47005367279053 1.57054173946381 0.434903711080551 0.651953041553497 1.17862451076508 1.59607553482056 1.96470987796783 2.33201432228088 2.58970999717712 2.82168102264404 3.00340747833252 3.12240505218506 3.26917123794556 3.42293810844421
1.71803224086761 1.56858098506927 1.16516172885895 1.18114399909973 1.16305828094482 1.03652548789978 1.01700043678284 0.920415163040161 0.980386734008789 1.2846771478653 1.46080434322357 1.27414751052856 1.59777760505676 2.21562147140503 2.31486248970032 2.4275050163269 1.1286838054657 0.591034412384033 0.27331879734993 -0.153598845005035 -0.214367598295212 -0.182564377784729 -0.177705302834511 -0.0903687253594398 -0.0297466404736042 0.0581071004271507 0.152997523546219 0.263504564762115 0.371415346860886 0.460837185382843 0.660908102989197 0.651090979576111 0.682276904582977 0.651663482189178 0.633579015731812 0.629890620708466 0.606866776943207 0.579771161079407 0.536751389503479 0.659163355827332 0.942155301570892 0.636756718158722 0.889344155788422 1.21061229705811 1.50783967971802 1.93795907497406 2.38625597953796 3.36504673957825 4.49552345275879 5.85139179229736 6.95813083648682 7.37378358840942 6.94340229034424 5.04745292663574 3.18356990814209 1.9336462020874 0.798889696598053 0.909441769123077 1.11695647239685 1.36537575721741 1.57116138935089 1.72504305839539 1.8413393497467 1.96183502674103 2.15911364555359 2.51256656646729 3.04117679595947 3.54038858413696 3.98240089416504 4.33279371261597 4.55947780609131 4.60657978057861 4.71358394622803 4.71225357055664 4.73141288757324 4.85895538330078 6.95632314682007 8.40693283081055 10.5768823623657 12.5768995285034 15.027307510376 17.3744964599609 20.5112991333008 23.7164897918701 24.5949077606201 24.4319553375244 22.3343849182129 14.2954425811768 14.0153465270996 15.8319635391235 13.7455940246582 12.4163818359375 11.1370534896851 9.99727916717529 6.29347896575928 2.80256628990173 3.80602478981018 4.957932472229 6.611732006073 7.17397785186768 6.59085559844971 6.71528482437134 4.35758399963379 3.67412972450256 4.0465521812439 3.89647364616394 3.32649087905884 5.09869766235352 7.46661901473999 14.8622522354126 9.88065910339355 3.49035024642944 4.05253028869629 5.45809555053711 4.72191572189331 6.40011262893677 8.65413665771484 7.09163904190063 0.677117705345154 1.12263834476471 1.86320245265961 2.19331884384155 2.47439932823181 5.12943840026855 6.38502073287964 5.22941255569458 5.4044303894043 6.35844135284424 6.6153039932251 4.19065618515015 4.31768846511841 6.71623754501343 7.7530255317688 7.75941705703735 6.49893951416016 3.93700742721558 1.69769334793091 0.650644898414612 1.0741286277771 -0.37967437505722 -1.435213804245 -2.42412924766541 -1.57850277423859 -0.716322124004364 -0.332708120346069 0.501015961170197 0.744541823863983 1.74079167842865 2.06137919425964 2.61092138290405 3.06715035438538 3.29590272903442 4.4967737197876 6.30951118469238 7.62487649917603 6.69531154632568 6.57223892211914 5.62756681442261 4.92904281616211 3.67445039749146 2.0148332118988 0.311012119054794 0.711529791355133 1.19874560832977 1.74910080432892 2.1579282283783 2.41277933120728 2.55726146697998 2.72955846786499 2.87746143341064 2.98469352722168 3.1251847743988
1.70286190509796 1.06331741809845 0.994720935821533 1.06813430786133 0.965044498443604 0.916143834590912 0.842645347118378 0.844617307186127 0.933131158351898 1.92137336730957 1.27585637569427 1.55309355258942 2.05736494064331 2.13063216209412 2.1403214931488 3.18467712402344 2.46505951881409 1.7600165605545 0.983862221240997 -0.233903437852859 -0.247291192412376 -0.232744917273521 -0.216709122061729 -0.142933040857315 -0.0713357180356979 -0.0148907490074635 0.00499795703217387 0.103178322315216 0.296178787946701 0.389115989208221 0.526429772377014 0.628575623035431 0.60201770067215 0.5871901512146 0.574985682964325 0.554047882556915 0.513268291950226 0.485294163227081 0.472994357347488 0.680039167404175 1.18765902519226 0.863666951656342 1.14684808254242 1.38182151317596 1.74093163013458 2.15991449356079 2.54011273384094 3.64127469062805 4.53286075592041 5.28162384033203 6.21569919586182 6.56173801422119 5.95186710357666 3.89843511581421 2.27173018455505 1.93796861171722 1.39695715904236 1.01247775554657 1.15914154052734 1.35494256019592 1.52563345432281 1.64456737041473 1.7858008146286 1.99950611591339 2.356032371521 2.88479804992676 3.36155724525452 3.749596118927 4.09043550491333 4.28100824356079 4.32892227172852 4.42030000686646 4.41216516494751 4.50727891921997 4.50985431671143 6.12055635452271 7.20306253433228 8.16428565979004 9.41270351409912 11.9886140823364 13.4293832778931 15.9369831085205 18.2584266662598 20.5119876861572 22.8496360778809 21.9794807434082 18.5613021850586 15.1559019088745 14.9096584320068 13.3156270980835 15.2453689575195 14.751184463501 11.9638290405273 10.1079740524292 8.71626472473145 4.27834606170654 4.50856304168701 5.45031881332397 6.32316255569458 6.86693286895752 6.50960969924927 7.67748498916626 6.96878576278687 3.52796697616577 3.40564584732056 3.76702046394348 4.76066017150879 6.29658985137939 11.0987920761108 14.5721101760864 12.3730192184448 8.38295841217041 6.90861034393311 7.28972816467285 6.19637393951416 6.59320020675659 5.87825107574463 6.22080612182617 1.04578626155853 1.45508182048798 1.89993846416473 2.12183666229248 3.05856966972351 5.02585792541504 5.20082712173462 4.96767091751099 7.26600551605225 10.7386684417725 7.59104108810425 5.46720790863037 6.65074777603149 8.60364055633545 9.63984870910645 9.17490196228027 7.37152242660522 4.15135860443115 2.30056571960449 0.940446078777313 1.93057799339294 -0.757441818714142 -2.35036444664001 -1.74711108207703 -1.1212043762207 -0.533090353012085 -0.148570626974106 0.104912132024765 1.07792031764984 1.44744646549225 2.11246562004089 2.50510835647583 2.67078876495361 3.40145683288574 4.68668937683105 5.88533115386963 5.87810754776001 4.91863965988159 4.94728326797485 4.59568548202515 3.70041298866272 3.81124019622803 4.07308769226074 2.14238095283508 0.656081140041351 0.994500756263733 1.53396785259247 1.93663740158081 2.19834637641907 2.31986522674561 2.44750475883484 2.59701609611511 2.7549147605896 2.90985155105591
1.35582602024078 1.04860389232635 0.87614780664444 0.859309375286102 0.867077112197876 0.80639374256134 0.788770377635956 0.80046021938324 0.936463236808777 1.63475799560547 2.32400941848755 1.90775740146637 1.99871218204498 2.02364754676819 2.45482516288757 2.65852546691895 2.49053192138672 1.98159718513489 1.18043684959412 0.167830660939217 -0.265537917613983 -0.259551793336868 -0.233611360192299 -0.172384783625603 -0.119089812040329 -0.0596630275249481 -0.0064494414255023 0.0371950380504131 0.228776142001152 0.332510590553284 0.421092957258224 0.545379281044006 0.531403601169586 0.519416332244873 0.509803950786591 0.481161385774612 0.456993192434311 0.447482824325562 0.523031115531921 0.80651181936264 1.17110991477966 1.11606538295746 1.27335107326508 1.61834919452667 1.94611239433289 2.26316666603088 2.68902039527893 3.79286599159241 4.35445880889893 4.9617338180542 5.31638813018799 5.82362174987793 6.71778059005737 4.84383249282837 2.17888951301575 1.20140314102173 0.994572341442108 1.0605491399765 1.15979063510895 1.33165144920349 1.38797533512115 1.45392119884491 1.70643246173859 2.11110782623291 2.68956017494202 3.17371082305908 3.5538694858551 3.87343907356262 4.03779172897339 4.07931280136108 4.14471387863159 4.14783954620361 4.21771240234375 4.20989465713501 5.42588472366333 6.26169776916504 7.04129505157471 8.12377548217773 9.4000244140625 10.7330169677734 12.8673477172852 14.0101041793823 16.4199619293213 18.7818813323975 19.9537601470947 20.4380512237549 18.1454963684082 14.8395156860352 15.8320617675781 14.4995851516724 14.1300582885742 15.6915464401245 14.3282632827759 11.844913482666 11.4786548614502 8.93317222595215 5.41521263122559 5.95244836807251 6.19137907028198 5.72570705413818 6.22420454025269 6.7407546043396 6.49846315383911 3.46621370315552 3.20963454246521 4.32445478439331 5.67298460006714 8.96196746826172 10.9149560928345 14.3537139892578 11.261754989624 8.14803600311279 6.77521324157715 8.32484531402588 8.08936214447021 5.53413200378418 5.10458135604858 3.36536240577698 1.2869086265564 1.66295194625854 1.92438805103302 1.99656987190247 3.23275995254517 4.03629350662231 4.89026641845703 6.02255868911743 8.5751485824585 14.0974979400635 11.7131519317627 6.25766372680664 7.71781921386719 8.86123371124268 10.1388645172119 10.7936325073242 8.76655960083008 4.95947360992432 2.67467951774597 1.62835907936096 1.86602795124054 1.8880854845047 -1.41666007041931 -1.26772046089172 -0.819775998592377 -0.604431688785553 -0.271167725324631 0.803536176681519 1.02097010612488 1.6385612487793 2.14766645431519 2.30468797683716 2.81539607048035 3.68220186233521 4.84352445602417 5.36989784240723 4.83851385116577 4.16900968551636 4.09077739715576 3.6329619884491 3.54062080383301 3.7826247215271 4.73053121566772 4.04849338531494 1.10856139659882 1.23616981506348 1.62120044231415 1.87108087539673 2.08466219902039 2.21213698387146 2.28129124641418 2.45000243186951 2.5068633556366 2.64625668525696
0.920543074607849 0.724235534667969 0.860394358634949 0.779814541339874 0.746718227863312 0.75764662027359 0.784612476825714 0.863385558128357 1.02216851711273 1.29887747764587 3.34691858291626 1.88460421562195 1.8801805973053 2.20820784568787 2.37383532524109 2.28891110420227 2.40212678909302 1.61874604225159 1.4090530872345 0.744539141654968 -0.27325576543808 -0.273559957742691 -0.273202210664749 -0.223967880010605 -0.150165349245071 -0.0889633297920227 -0.0178256910294294 0.0360504202544689 0.170818328857422 0.28095668554306 0.339856564998627 0.417811274528503 0.491652846336365 0.452482849359512 0.449220895767212 0.437435835599899 0.417724788188934 0.501400649547577 0.626006722450256 0.80835747718811 1.01162326335907 1.17961919307709 1.53289926052094 1.8164154291153 2.04591202735901 2.41984629631042 3.01587915420532 3.53664803504944 4.14000082015991 4.21059417724609 4.58690166473389 5.22399044036865 5.96466159820557 5.96629524230957 3.6100709438324 2.16499042510986 1.406041264534 1.14938306808472 1.23926436901093 1.32203543186188 1.33589315414429 1.43077659606934 1.78472423553467 2.33109736442566 2.90523505210876 3.33649206161499 3.66248464584351 3.82599902153015 3.85193657875061 3.89535975456238 3.87157988548279 3.91372108459473 3.92767024040222 4.81808996200562 5.5637035369873 6.28111696243286 7.14637136459351 8.14148235321045 9.06539249420166 10.1303596496582 11.5433034896851 13.3206739425659 14.8163166046143 16.9428386688232 16.2229652404785 15.762508392334 15.5705137252808 14.8671751022339 14.3091592788696 14.0020160675049 14.0994281768799 13.6486310958862 13.1070718765259 11.4479961395264 11.527720451355 11.1240158081055 7.84328937530518 6.04205846786499 5.55911540985107 5.66753244400024 6.50457525253296 7.42896318435669 6.54855823516846 3.03623604774475 3.8406777381897 4.89139032363892 7.22668552398682 8.70349979400635 10.9608192443848 12.2244310379028 10.6897840499878 8.7067699432373 7.89795017242432 7.79015970230103 10.0468482971191 7.72772169113159 5.48587226867676 2.78998136520386 1.52655100822449 1.67252552509308 1.85875558853149 2.1532826423645 3.5693142414093 4.29090023040771 5.60070276260376 7.8826003074646 10.9772100448608 12.6914949417114 11.9689683914185 7.57603120803833 7.9715256690979 9.39105033874512 11.5088472366333 12.3680057525635 11.4876432418823 8.45209312438965 6.89684391021729 4.76222705841064 5.09470129013062 5.20983219146729 2.74995017051697 -0.835740506649017 -0.740397274494171 -0.572224736213684 0.416471987962723 0.78361701965332 1.24994778633118 1.7206803560257 2.04774117469788 2.48839974403381 3.19797372817993 4.19476222991943 4.74481725692749 4.46230411529541 4.1324291229248 3.6832594871521 3.24077343940735 3.21912741661072 3.39136171340942 3.82760262489319 4.19155931472778 4.4974627494812 2.52680063247681 1.36380982398987 1.63248956203461 1.86781120300293 2.03619885444641 2.10446619987488 2.2489013671875 2.25242471694946 2.35833644866943 2.4340488910675
0.720033586025238 0.698770403862 0.686419010162354 0.67360532283783 0.693222165107727 0.735480785369873 0.831775784492493 0.985953807830811 1.18098425865173 1.2357269525528 2.72121143341064 1.8715124130249 1.99727702140808 2.20361518859863 2.28889012336731 2.47631096839905 3.59945869445801 2.8733115196228 2.46705532073975 1.65151286125183 0.181575775146484 -0.286868393421173 -0.270221799612045 -0.247201323509216 -0.203079640865326 -0.123958125710487 -0.0505835972726345 0.019776364788413 0.0379001833498478 0.139191776514053 0.283469766378403 0.331883043050766 0.434252113103867 0.407667577266693 0.391214221715927 0.43329069018364 0.474003344774246 0.564919412136078 0.728472113609314 0.929276823997498 1.09464335441589 1.3859179019928 1.64541518688202 1.93917751312256 2.24828696250916 2.72590470314026 3.14917230606079 3.58313059806824 3.82678246498108 3.83079600334167 3.84429621696472 4.24485301971436 4.82551431655884 5.20754241943359 4.69971513748169 3.5005509853363 2.26326251029968 1.4394998550415 1.59000301361084 2.31360411643982 1.85920596122742 1.62378096580505 2.07496237754822 2.57029247283936 3.01372218132019 3.43294668197632 3.60435628890991 3.6549711227417 3.68671774864197 3.64678382873535 3.6109447479248 3.57665586471558 4.22979974746704 4.92325782775879 5.66228485107422 6.37966108322144 7.17759799957275 7.84159660339355 8.74934577941895 9.70285511016846 10.5712785720825 12.0131702423096 13.8151655197144 14.1190338134766 14.028205871582 13.3526134490967 13.2983818054199 13.1943626403809 13.1242361068726 13.1001319885254 12.5072154998779 11.4014654159546 10.8321990966797 9.92191791534424 9.71162700653076 9.04161930084229 8.36013507843018 5.92055177688599 5.48761415481567 5.95036935806274 6.65780925750732 8.68355083465576 9.15584754943848 3.6419153213501 3.84526252746582 5.70853710174561 6.75376033782959 8.23749160766602 8.74626731872559 9.53994464874268 8.62170505523682 7.8488883972168 7.66076707839966 8.34420299530029 8.23320579528809 9.53513431549072 8.27288246154785 5.69035387039185 1.58755743503571 1.71039998531342 1.70543789863586 2.32544589042664 3.58665657043457 4.90168523788452 6.63860177993774 9.12918281555176 10.5900831222534 11.7334604263306 7.83890962600708 7.53226232528687 8.16882133483887 9.89937019348145 15.6871862411499 18.2798252105713 16.7609329223633 15.1035680770874 11.7108554840088 7.30711984634399 7.67219114303589 8.16713619232178 5.35527563095093 3.07961797714233 -0.0141799198463559 0.303793519735336 0.689205825328827 0.947828471660614 1.13915085792542 1.60758316516876 2.15299510955811 2.79217147827148 3.65894174575806 4.010986328125 3.76364707946777 3.53442811965942 3.42686367034912 3.03571653366089 2.76471090316772 2.99025225639343 3.24467206001282 3.53018999099731 4.1018271446228 4.9029335975647 3.85646486282349 1.18992078304291 1.51090955734253 1.77573847770691 1.94235384464264 2.0921368598938 2.10018944740295 2.18683576583862 2.25203657150269 2.36242914199829
0.580484092235565 0.618350803852081 0.581510245800018 0.640573978424072 0.700842797756195 0.780892610549927 0.925682306289673 1.13696122169495 1.18703186511993 1.38055956363678 1.77662670612335 2.65411114692688 2.01362323760986 2.046217918396 2.23611998558044 2.99338054656982 2.92294907569885 3.07473492622375 2.67823600769043 2.03169655799866 0.903875589370728 -0.185304254293442 -0.280315726995468 -0.255901426076889 -0.228251397609711 -0.177792862057686 -0.111536927521229 -0.00264055514708161 0.0267117470502853 0.139786198735237 0.216121450066566 0.260341793298721 0.32249853014946 0.320786893367767 0.35411673784256 0.349466294050217 0.49242177605629 0.655254364013672 0.839788675308228 1.01231956481934 1.30041611194611 1.54461646080017 1.76436376571655 2.01165866851807 2.41760683059692 2.79124355316162 3.27218627929688 3.45730710029602 3.32266569137573 3.57497692108154 3.47759175300598 3.58551406860352 3.48341155052185 3.60502934455872 3.35727643966675 3.19401788711548 2.00071883201599 1.57723832130432 2.26283836364746 2.86583471298218 2.58833360671997 1.96945714950562 2.36580157279968 2.71607375144958 3.12750911712646 3.36469054222107 3.44060873985291 3.4744815826416 3.47921824455261 3.45884561538696 3.3626275062561 3.86918926239014 4.30913972854614 4.88687133789062 5.5748610496521 6.40412569046021 6.96575498580933 7.70711326599121 8.37449741363525 9.11332988739014 10.0511980056763 11.3404550552368 12.4895610809326 12.6443014144897 13.2196168899536 12.847617149353 12.3482151031494 12.7344827651978 12.5673027038574 12.2201299667358 10.8750858306885 9.55778789520264 8.41281700134277 7.93227910995483 7.05936813354492 6.80804824829102 5.93335723876953 5.42427062988281 5.68898630142212 6.05406761169434 7.05756378173828 8.86458206176758 11.012598991394 6.76918411254883 3.74766945838928 3.16360878944397 4.48872661590576 4.93241786956787 5.62460088729858 6.55244827270508 6.88268995285034 7.04801177978516 7.15665626525879 7.15292978286743 7.65279817581177 9.19148826599121 10.5302467346191 12.3024063110352 5.22353076934814 1.70235407352448 1.64853584766388 2.43950319290161 3.42102742195129 5.35912466049194 7.35027837753296 9.07061862945557 10.1695127487183 11.9690980911255 10.8771409988403 7.75108289718628 8.30690956115723 10.9184885025024 15.0464429855347 19.0674686431885 18.8383598327637 18.2087821960449 15.4020977020264 10.6410713195801 7.90392065048218 10.6432542800903 9.68143463134766 7.00873517990112 2.25280809402466 0.65582287311554 1.73315000534058 1.11351716518402 1.24464333057404 1.74424421787262 2.43884134292603 3.19013810157776 3.41229939460754 3.20015120506287 2.99228954315186 2.81813859939575 2.65136671066284 2.61784410476685 2.5869779586792 2.69400644302368 3.01815605163574 3.40324592590332 3.90006971359253 4.3353123664856 4.95483350753784 3.01395630836487 1.25051164627075 1.52550315856934 1.75258123874664 1.95128548145294 2.03923392295837 2.12272214889526 2.22514462471008 2.2557065486908
0.55599182844162 0.594455718994141 0.594918012619019 0.637688934803009 0.713239967823029 0.88101726770401 1.06371092796326 1.11294639110565 1.20210778713226 1.38426613807678 1.64447820186615 3.32400703430176 1.95858681201935 1.96756529808044 2.47302341461182 2.69084930419922 2.80002236366272 2.76909875869751 2.93640804290771 2.17409586906433 1.17571544647217 0.171704024076462 -0.282367438077927 -0.264577597379684 -0.242015361785889 -0.194534167647362 -0.143241241574287 -0.0553205758333206 -0.00091887975577265 0.0999780520796776 0.167714983224869 0.22213751077652 0.251901030540466 0.292027771472931 0.322891652584076 0.353557914495468 0.533913671970367 0.778977572917938 0.942100703716278 1.21056580543518 1.41095876693726 1.58977937698364 1.80490660667419 2.14901089668274 2.46664547920227 2.86083984375 3.01548528671265 3.03621196746826 3.2580144405365 3.15653467178345 2.95913696289062 2.79266738891602 2.64706206321716 2.66318416595459 2.43935489654541 1.98499798774719 1.60733771324158 1.92700171470642 2.22607326507568 2.89494180679321 3.10229969024658 2.30277967453003 2.54754257202148 2.86721992492676 3.10534572601318 3.22276067733765 3.26990842819214 3.29323554039001 3.30223202705383 3.25171518325806 3.45987868309021 3.70205521583557 4.09655141830444 4.58126163482666 5.19554758071899 6.17637729644775 6.87825870513916 7.39368295669556 8.0230655670166 8.66383457183838 9.74694728851318 10.4904928207397 11.0692729949951 11.4820985794067 11.9001026153564 11.8627834320068 11.8206787109375 11.5881338119507 11.2858810424805 11.0724029541016 10.3479118347168 8.94749927520752 7.33883857727051 6.4144926071167 6.00970506668091 5.49072408676147 5.24922370910645 5.11812782287598 5.56116580963135 6.04350566864014 7.36322212219238 8.58318614959717 8.89883804321289 9.1282787322998 14.5121059417725 3.0133273601532 2.55204486846924 2.82203149795532 3.77751183509827 5.14285373687744 6.36087322235107 6.60205554962158 5.82451963424683 5.65142440795898 6.45178508758545 8.33531379699707 10.0306549072266 11.284571647644 8.4560432434082 6.06371021270752 2.1409158706665 2.82915139198303 3.71606945991516 5.58410501480103 7.37909603118896 8.2379035949707 8.76027584075928 9.99973297119141 10.9842844009399 8.57763290405273 9.52119731903076 11.4979581832886 14.006908416748 14.9143133163452 16.3906211853027 16.9376945495605 16.9533042907715 11.4743032455444 8.25383949279785 8.0828857421875 9.42620182037354 7.61302089691162 3.71533203125 2.40802788734436 2.72132730484009 2.72011280059814 1.66488182544708 2.12642121315002 2.81973147392273 3.03301215171814 2.74821138381958 2.57291746139526 2.33330154418945 2.09430336952209 2.03344416618347 1.97888898849487 2.38428521156311 2.61015200614929 2.73823857307434 2.97165131568909 3.35638117790222 3.87020063400269 3.65645146369934 3.90813636779785 1.90602254867554 1.17879009246826 1.38755142688751 1.59512913227081 1.77539026737213 1.96361434459686 2.11596918106079 2.65884399414062
0.577034652233124 0.550651431083679 0.570267200469971 0.666585266590118 0.778623223304749 0.899507522583008 1.07169365882874 1.04883694648743 1.13299167156219 1.34548699855804 1.65892016887665 3.24808382987976 2.12703418731689 2.18061375617981 2.29665994644165 2.42286944389343 2.57484436035156 2.74794554710388 2.9092972278595 2.2367115020752 1.37265884876251 0.525125324726105 -0.24216802418232 -0.255613595247269 -0.250412136316299 -0.217159911990166 -0.163349583745003 -0.0980988144874573 -0.0533837117254734 0.0425403788685799 0.0626711621880531 0.187384068965912 0.21588571369648 0.230401337146759 0.284820437431335 0.428691267967224 0.555317401885986 0.822778403759003 1.08470702171326 1.25399577617645 1.42786264419556 1.61749064922333 1.93815767765045 2.21619963645935 2.57279467582703 2.66921043395996 2.7005980014801 2.82463526725769 2.77631568908691 2.7708899974823 2.8003978729248 2.28629946708679 1.93007636070251 1.66657602787018 1.49309349060059 1.51713824272156 1.60362422466278 1.72915947437286 2.16256618499756 2.7382698059082 3.1415638923645 2.5129542350769 2.72415924072266 2.84826493263245 2.97144222259521 3.07023644447327 3.10816645622253 3.11896276473999 3.10808992385864 3.35064768791199 3.59907674789429 3.92074131965637 4.14547204971313 4.41716718673706 4.9780797958374 6.04224967956543 6.67894554138184 7.16679430007935 7.72138023376465 8.56717395782471 9.11224555969238 9.6871166229248 10.1892862319946 10.4166975021362 10.428671836853 10.5480937957764 10.332986831665 10.0041332244873 9.74092578887939 9.26904392242432 8.54539012908936 7.30276775360107 6.56379985809326 5.772132396698 5.13697814941406 5.07627439498901 4.85912704467773 5.02515316009521 5.47284173965454 6.31625986099243 7.30289697647095 8.1579418182373 8.19612884521484 11.0158843994141 20.535924911499 11.6121120452881 2.8232262134552 2.98015809059143 3.00719857215881 4.52537250518799 5.61717557907104 5.68988084793091 5.29246711730957 4.84913492202759 5.43981266021729 7.48900365829468 7.77351808547974 7.99695110321045 5.34523105621338 2.58835291862488 2.65301275253296 3.31023931503296 4.30314493179321 5.26829385757446 6.56975507736206 7.13431882858276 7.81137895584106 9.31677627563477 8.06497001647949 8.18482303619385 9.6867208480835 11.5129280090332 12.1977081298828 13.0864658355713 13.5928716659546 13.6490917205811 13.489541053772 11.0224266052246 7.00083112716675 6.55509805679321 5.79078149795532 4.53417110443115 3.36368751525879 2.84737324714661 2.18545818328857 1.56270790100098 2.00139021873474 2.54964160919189 2.68258428573608 2.48224973678589 2.37813282012939 2.13361382484436 1.77985394001007 1.67379534244537 1.57539391517639 1.7964870929718 2.01414561271667 2.45845317840576 2.42078614234924 2.65608215332031 2.92826414108276 2.77431225776672 2.80568361282349 2.61487102508545 2.17801189422607 0.971542716026306 1.07766437530518 1.23643469810486 1.41106677055359 1.57449400424957 2.26126551628113 2.78361964225769
1.70893657207489 0.547380387783051 0.571031510829926 0.659444332122803 0.865091562271118 1.04910063743591 1.07073962688446 1.05058443546295 1.13312673568726 1.32588255405426 1.65812957286835 2.76545596122742 2.50857973098755 2.17309856414795 2.17415380477905 2.2678701877594 2.4751443862915 2.68483352661133 2.94123458862305 2.29176092147827 1.57937622070312 0.79271125793457 0.00329383695498109 -0.262002468109131 -0.255398482084274 -0.240778490900993 -0.194535031914711 -0.152238711714745 -0.0772820636630058 0.00794758927077055 0.0247559603303671 0.0939138904213905 0.181154683232307 0.213505834341049 0.271258443593979 0.460640639066696 0.684796690940857 0.755763113498688 1.09370350837708 1.28246867656708 1.46731877326965 1.76763868331909 1.99867188930511 2.31889152526855 2.39751815795898 2.42517447471619 2.50854253768921 2.47975206375122 2.45233178138733 2.47997522354126 2.39954519271851 2.0741925239563 1.4792685508728 1.20305788516998 1.22850251197815 1.22651624679565 1.24596261978149 1.3311675786972 1.61302578449249 2.11541056632996 2.54517531394958 2.49348974227905 2.72365212440491 2.75158214569092 2.77471876144409 2.8515043258667 2.92049598693848 2.94336676597595 2.9573712348938 3.44301748275757 3.7795078754425 3.99129581451416 4.16938066482544 4.4973030090332 4.92747449874878 5.92608213424683 6.48634243011475 6.97309303283691 7.65331506729126 8.12166118621826 8.6162223815918 9.02879333496094 9.23985195159912 9.31306648254395 9.43708992004395 9.32961273193359 9.05381298065186 8.7095308303833 8.3613338470459 7.84732532501221 6.37165594100952 5.06633186340332 4.98669290542603 4.54560279846191 4.30872488021851 4.15064239501953 4.48596096038818 4.63116979598999 5.52760124206543 5.94451141357422 6.4948296546936 8.35571956634521 10.7868070602417 13.4268856048584 18.1033744812012 24.164587020874 17.371675491333 14.8974580764771 4.43676280975342 4.26608324050903 4.57508850097656 4.8237133026123 4.8546290397644 4.89873695373535 5.64567995071411 5.43516063690186 5.80846881866455 5.12868785858154 3.80431604385376 2.41548681259155 3.02051758766174 3.93074321746826 4.33822202682495 5.04082584381104 5.85638666152954 6.68202590942383 7.37336826324463 8.02356338500977 10.179407119751 8.77713871002197 10.109790802002 11.0251007080078 11.2308073043823 11.7476482391357 11.5255498886108 11.3044185638428 10.1613273620605 9.56825542449951 6.3197979927063 5.54043531417847 4.77571439743042 4.10565662384033 3.23493123054504 2.78292727470398 1.55014073848724 1.86059904098511 2.39038681983948 2.50238060951233 2.24360251426697 2.15006160736084 2.04106545448303 2.40805673599243 1.84131622314453 1.50391566753387 1.58941996097565 1.66602993011475 1.94124519824982 2.21861696243286 2.45024251937866 2.35967493057251 2.23635697364807 2.16355323791504 1.59505426883698 1.49158763885498 0.882929563522339 0.767558872699738 0.854817628860474 0.966280698776245 1.35371470451355 1.90138804912567 2.46005439758301 2.94846773147583
0.544318974018097 0.543399631977081 0.634979963302612 0.769148349761963 0.974355041980743 1.01543247699738 1.02566373348236 1.06448245048523 1.15270149707794 1.40114545822144 1.57446384429932 2.13047313690186 2.88882374763489 2.20316672325134 2.1790497303009 2.24324083328247 2.36744213104248 2.6368191242218 3.1414098739624 2.87164449691772 1.87476027011871 0.657917439937592 0.188134402036667 -0.271216124296188 -0.268602132797241 -0.250497996807098 -0.215808406472206 -0.197266280651093 -0.107066363096237 -0.0456392206251621 -0.0142559874802828 0.0644989907741547 0.146188512444496 0.177451819181442 0.321046710014343 0.478207290172577 0.617234289646149 0.926884949207306 1.18354916572571 1.33697688579559 1.59176385402679 1.8365912437439 2.13497376441956 2.21456003189087 2.23231482505798 2.27786159515381 2.23197102546692 2.17349863052368 2.12814474105835 2.01807451248169 1.69704949855804 1.45461809635162 1.7765086889267 1.22095155715942 1.20469975471497 1.23649370670319 1.32128810882568 1.49760234355927 1.85922527313232 2.20550966262817 2.44502401351929 2.64998435974121 2.7010509967804 2.68616628646851 2.5590705871582 2.58085799217224 2.69825005531311 2.78274059295654 2.98331642150879 3.36532855033875 3.78582692146301 3.92304158210754 4.2016134262085 4.44751739501953 5.01916074752808 5.83020973205566 6.36543893814087 6.93665742874146 7.34384059906006 7.765212059021 8.13484287261963 8.30674362182617 8.26812553405762 8.49817752838135 8.44353866577148 8.253342628479 7.86973571777344 7.57427072525024 7.33772230148315 6.26257228851318 4.859778881073 4.3945164680481 3.87344312667847 3.74608254432678 3.46604871749878 3.67754197120667 3.94227528572083 4.29969263076782 5.12284421920776 5.45811891555786 6.56752920150757 9.57620429992676 13.2607269287109 14.4577035903931 17.7151260375977 17.917911529541 18.956880569458 18.8440532684326 14.1629905700684 4.45072507858276 3.90497612953186 3.96442556381226 4.33504915237427 4.5922646522522 4.25862455368042 4.49834108352661 4.15296316146851 3.30887341499329 3.78033113479614 2.83591246604919 3.52571749687195 4.63579034805298 4.58767890930176 5.04775762557983 5.78179788589478 6.38484573364258 7.04541826248169 7.86862230300903 8.77287101745605 9.69607448577881 10.5499792098999 11.2225399017334 11.4372873306274 11.3348302841187 11.0005960464478 11.1236619949341 8.67584800720215 7.17617130279541 6.10512161254883 5.02690315246582 4.5533013343811 3.43241286277771 2.76024723052979 2.80877208709717 1.81518828868866 2.26275014877319 2.39713311195374 2.17967677116394 2.06502985954285 1.97373843193054 1.80376493930817 2.97567486763 3.60146951675415 2.92274689674377 2.24860310554504 1.89623117446899 1.96006882190704 2.1800708770752 2.41366124153137 2.13743424415588 1.77988862991333 1.40881896018982 0.961703658103943 0.463860660791397 0.446409553289413 0.548089861869812 0.751332938671112 1.22278773784637 1.74796438217163 2.27179503440857 2.74970126152039 3.12829899787903
