NCOLS 175
NROWS 32
XLLCORNER 353728
YLLCORNER 6700064
CELLSIZE 16 
NODATA_value -3.4e+38 
2.49588966369629 3.29950952529907 4.35163307189941 4.57531452178955 3.71415948867798 5.15814447402954 1.40945160388947 2.88781785964966 3.84337854385376 4.14179849624634 4.71482133865356 4.40573406219482 3.51334881782532 2.16994333267212 3.70497274398804 3.60118913650513 3.31204390525818 2.63708829879761 2.35340881347656 1.58885753154755 1.86905741691589 2.03695440292358 1.42090857028961 1.46356427669525 1.44081330299377 0.252432018518448 0.970807492733002 0.859108448028564 -0.291301339864731 -0.453013837337494 -0.584729850292206 0.0651736333966255 0.5470951795578 -0.386467486619949 0.563075065612793 2.28116989135742 2.86159825325012 3.31310153007507 2.97114324569702 4.76388120651245 3.35643291473389 3.31823492050171 3.20856547355652 5.76948547363281 5.36173915863037 6.11116123199463 5.26016902923584 4.57033014297485 6.18818807601929 5.89368438720703 6.36543893814087 6.82814598083496 5.60427570343018 5.42393398284912 5.80277299880981 5.3089542388916 5.04027700424194 4.11126279830933 4.53062915802002 4.78577947616577 3.85823893547058 2.01973438262939 1.57832336425781 1.92722320556641 3.42789530754089 4.20694255828857 3.81424355506897 3.49165606498718 4.20371341705322 2.88115787506104 7.78625106811523 4.95658159255981 3.25955247879028 4.86926603317261 4.27452802658081 3.62768483161926 4.07763481140137 4.65751552581787 2.85764503479004 3.47545957565308 3.08807992935181 11.4729127883911 9.13878154754639 4.19519281387329 2.95774078369141 2.33732056617737 2.97657537460327 3.3893256187439 3.08311653137207 2.43430972099304 2.07367134094238 1.64326286315918 1.88691258430481 9.39287185668945 32.230785369873 19.1551513671875 26.5144023895264 9.34479713439941 1.49040734767914 3.85663342475891 7.60412788391113 4.13421630859375 2.09738826751709 1.73397958278656 3.67137098312378 5.61186456680298 5.96286582946777 6.48348045349121 7.07917785644531 5.5459418296814 7.49365854263306 8.04824638366699 14.7355031967163 26.1559371948242 43.8112983703613 21.6194667816162 31.2302265167236 38.8305244445801 22.258430480957 36.7471466064453 19.7400798797607 8.25936603546143 4.05975723266602 -3.57161808013916 -3.95114755630493 -4.20845079421997 -4.43032455444336 -4.36021375656128 -3.08982253074646 -0.427004605531693 -1.98309278488159 -1.80817484855652 -1.10433840751648 7.72969675064087 6.39477491378784 6.13922691345215 15.3620796203613 0.506959795951843 -0.107685670256615 7.04483366012573 0.0982239320874214 0.444508373737335 0.740067839622498 1.00052928924561 0.642146706581116 0.245553269982338 0.602732002735138 0.6512531042099 0.456655740737915 0.217329517006874 0.0454126223921776 0.690028846263885 -1.40421962738037 -1.50257337093353 -1.53612887859344 -0.741093516349792 0.370332688093185 2.33923864364624 -0.469646751880646 9.70828819274902 7.85342407226562 1.64205849170685 1.85297930240631 1.53746271133423 1.68570613861084 1.54271876811981 1.40769159793854 2.14001035690308 2.21558380126953 2.61345338821411 2.70980215072632 3.18033075332642 3.39976763725281 3.65763974189758 3.57272863388062
2.69408655166626 3.53022503852844 5.07894897460938 4.49932098388672 3.95901250839233 5.91839075088501 1.50541436672211 3.76897192001343 4.43713903427124 4.3783278465271 4.96412134170532 4.68742227554321 3.65977096557617 3.82253646850586 3.67331552505493 3.73907256126404 3.42211151123047 2.70744872093201 2.49008941650391 1.68288326263428 1.95423531532288 1.99181997776031 0.468511134386063 1.59354412555695 0.345340251922607 0.293986707925797 1.04010200500488 0.917411386966705 -0.246129542589188 -0.393410295248032 -0.473034501075745 -0.474468737840652 0.955342590808868 1.42746305465698 1.79478800296783 1.85176706314087 2.3958215713501 2.98722767829895 3.35884380340576 2.26339745521545 3.09292817115784 3.39131689071655 3.05599093437195 6.01277256011963 6.46530532836914 5.74710941314697 5.59281969070435 6.7298059463501 6.38259124755859 6.88768339157104 7.41239452362061 6.1513671875 5.62966966629028 5.69690942764282 6.09899568557739 5.61669731140137 4.68810224533081 4.85206031799316 5.12993907928467 4.48221349716187 3.03073310852051 1.64299511909485 1.90256297588348 2.06253290176392 4.45059251785278 4.55494403839111 3.3180570602417 4.99414396286011 5.56895112991333 11.6286220550537 8.74442100524902 6.13341236114502 5.35933399200439 2.69841647148132 4.48539161682129 3.31707143783569 4.47880220413208 5.07735872268677 4.90096521377563 5.24433088302612 3.16476464271545 2.30582141876221 4.05451202392578 4.29420042037964 10.7735538482666 2.87478637695312 7.92997360229492 3.45549774169922 5.08270835876465 11.1290445327759 4.62889099121094 1.82608187198639 5.80631542205811 1.53814160823822 1.2048544883728 31.3885974884033 1.69326627254486 32.4679336547852 2.22993731498718 10.1082239151001 8.58721542358398 5.9922080039978 3.26433944702148 4.69860553741455 6.60418462753296 6.3437352180481 15.8952016830444 11.2007732391357 8.19543170928955 7.00989198684692 9.19757080078125 8.7489538192749 6.68744659423828 5.19694709777832 1.42555034160614 27.3067378997803 28.2839813232422 20.5106372833252 42.0209617614746 20.515510559082 23.7057456970215 13.5028305053711 4.68187093734741 7.55568265914917 -3.35369372367859 -3.67971396446228 -3.82504558563232 -3.80336737632751 -2.74834227561951 -2.39032578468323 -1.70357131958008 -1.88334321975708 10.1252155303955 17.3463268280029 8.22848987579346 24.9074268341064 15.4888534545898 2.59952139854431 0.540189564228058 0.156663566827774 0.615191876888275 0.584583699703217 1.0240124464035 1.32589089870453 0.93346494436264 0.93682336807251 1.09966814517975 1.19985890388489 0.696359395980835 0.91978645324707 0.883754014968872 -0.018333425745368 -0.65673440694809 -0.875468134880066 5.68463802337646 0.644432544708252 2.17669701576233 7.03697872161865 5.33373880386353 5.55883026123047 1.78900027275085 1.98594284057617 2.04366874694824 1.84849774837494 1.80838215351105 1.74424695968628 2.36380457878113 2.52627325057983 2.73397183418274 2.74967932701111 3.25112080574036 3.44716739654541 3.72029781341553 4.03621959686279 4.01890993118286
4.09934663772583 5.2035984992981 5.50127935409546 4.35601091384888 7.37424373626709 1.66629898548126 3.41893649101257 4.46453762054443 4.79570293426514 5.40871238708496 4.4917459487915 4.92730903625488 3.61890053749084 3.95546102523804 3.92221641540527 3.59641623497009 2.87545466423035 2.5983874797821 1.7729184627533 2.00894832611084 2.08240604400635 1.67851376533508 1.79397857189178 1.67395186424255 0.383788585662842 1.18519341945648 1.08543634414673 -0.110903903841972 -0.21672135591507 -0.352831274271011 -0.509083211421967 0.503023028373718 1.01190185546875 1.82668507099152 1.73193824291229 1.92999970912933 1.98529946804047 2.19530177116394 3.16419243812561 3.07080912590027 3.69703435897827 3.3214955329895 3.47895383834839 6.22177648544312 6.72852945327759 6.08199691772461 5.14477825164795 7.08133125305176 6.72841215133667 7.29249143600464 7.8839955329895 6.52907943725586 6.1419243812561 6.266526222229 6.379554271698 5.86876678466797 4.63082456588745 5.09130573272705 5.38772583007812 4.71768665313721 2.26447892189026 1.81234431266785 2.70117735862732 3.92957282066345 4.93422794342041 4.48998165130615 8.4488410949707 8.72756004333496 6.32689571380615 16.8235740661621 9.89052391052246 6.70211458206177 6.19442462921143 4.86817646026611 3.82890915870667 4.70927429199219 5.69020175933838 4.89894485473633 5.41399955749512 6.9587721824646 3.46900582313538 3.69629836082458 5.46862936019897 12.6034030914307 2.96039605140686 14.1461009979248 3.66228079795837 5.38688039779663 6.31540012359619 2.5681779384613 6.45077610015869 9.90036010742188 5.74880170822144 5.64896059036255 3.33418035507202 7.70757484436035 19.7226676940918 1.93078505992889 27.8549671173096 10.5650539398193 2.28269457817078 3.92627501487732 18.5080299377441 12.8632049560547 7.69007539749146 11.0366973876953 6.98312997817993 6.83779668807983 9.94616031646729 11.1012287139893 10.2375440597534 9.73734855651855 8.11314296722412 40.5305061340332 1.82794690132141 2.26988244056702 5.47912406921387 9.88111019134521 11.9053926467896 8.05625247955322 29.0399780273438 14.5037755966187 1.6782329082489 1.63811588287354 21.3855876922607 -3.0946192741394 -1.66820526123047 -0.848703026771545 -0.771853685379028 -1.69421863555908 -1.65331923961639 -1.51572263240814 21.6982555389404 12.4271268844604 21.9319839477539 34.0661582946777 21.0833969116211 2.3124794960022 4.95528125762939 0.646387279033661 0.740922868251801 0.958395063877106 1.41520321369171 1.76802217960358 1.62509667873383 1.91685271263123 1.75816631317139 1.19927644729614 0.985476851463318 1.13311874866486 1.20505690574646 0.551689922809601 0.243676856160164 0.296095013618469 0.396872788667679 0.841189742088318 5.14079284667969 8.69717216491699 20.4665431976318 1.75336146354675 2.56795072555542 2.22546291351318 2.57545042037964 2.37845730781555 2.28018951416016 2.25219964981079 2.6944305896759 2.62308883666992 2.95558500289917 2.97862076759338 3.64225339889526 3.96642184257507 4.08659982681274 4.33018922805786 4.23579740524292
4.41874933242798 6.05162906646729 5.35950613021851 4.57923126220703 8.79886341094971 1.78246414661407 4.46199893951416 5.2456488609314 5.14055013656616 5.81820631027222 5.38166189193726 4.19316244125366 4.12019920349121 3.98829507827759 4.11827850341797 3.76926946640015 2.97789216041565 2.73171734809875 1.85369038581848 2.20549321174622 2.08234357833862 0.543818533420563 1.97627604007721 0.480183333158493 0.406959623098373 1.233558177948 1.1442494392395 -0.124890871345997 -0.210428461432457 -0.341618001461029 -0.487846553325653 1.07460033893585 1.52319943904877 1.87109959125519 1.88974750041962 1.97959458827972 1.96420276165009 2.03897070884705 2.6316921710968 3.12840414047241 3.70053839683533 4.95920515060425 6.54035139083862 6.13538885116577 7.01402568817139 6.49198389053345 7.74246597290039 7.36721611022949 8.01794528961182 8.67827701568604 7.19346761703491 6.54025554656982 6.54595041275024 6.84553480148315 6.29872417449951 5.92171907424927 5.39794635772705 5.73769950866699 5.16658639907837 3.43169355392456 2.38819074630737 2.41121649742126 2.7620108127594 4.9959568977356 5.16036748886108 3.85120797157288 11.9481153488159 16.0457935333252 35.2638740539551 18.7197303771973 14.3269996643066 10.0912609100342 3.37085485458374 5.59783601760864 3.15271067619324 5.78021955490112 6.34903717041016 6.51512241363525 8.53098297119141 3.93934965133667 5.40156841278076 8.17379283905029 7.45061540603638 4.69714641571045 3.51190948486328 3.07941603660583 9.20013046264648 7.97031497955322 17.7101020812988 13.7604207992554 6.96163511276245 1.90776526927948 1.800577044487 1.33932590484619 1.1264955997467 1.48025596141815 1.63749635219574 6.26232385635376 2.40361976623535 29.367712020874 5.33651971817017 2.27993130683899 9.94997310638428 13.9042749404907 19.2605266571045 13.0509939193726 14.1942539215088 13.3959712982178 12.2458181381226 14.0291147232056 13.4937782287598 12.9477558135986 9.23377799987793 3.49997234344482 1.5487025976181 0.258936136960983 -3.00237989425659 -3.34057068824768 -4.01157903671265 -2.67025828361511 -0.182165622711182 21.0822105407715 0.537504971027374 5.82482528686523 -3.06899166107178 9.59692668914795 -0.321818858385086 0.321005970239639 0.364288568496704 -0.0756449326872826 -1.53716123104095 -1.26413416862488 -0.478843301534653 13.7042999267578 55.9484825134277 38.5723304748535 29.5530300140381 13.4663438796997 0.924913883209229 1.1839462518692 7.35671520233154 1.39102637767792 1.91183590888977 2.04408168792725 1.81502509117126 2.33033752441406 2.10956120491028 1.68280613422394 1.6135538816452 1.74506533145905 1.46803629398346 0.935265243053436 1.51100528240204 1.09019196033478 1.38640809059143 15.023494720459 11.4767713546753 8.332200050354 1.58037328720093 2.72720432281494 3.10712862014771 2.90132093429565 3.01200127601624 2.98996710777283 3.08736658096313 2.79044818878174 2.77456259727478 2.90802502632141 3.05982732772827 3.64013981819153 4.1117787361145 4.16950750350952 4.44677734375 4.52614784240723 4.42018270492554
2.23369312286377 6.45372867584229 5.43400812149048 11.9871740341187 7.2227463722229 4.00532913208008 5.08759069442749 5.56089544296265 6.31252098083496 5.32645177841187 5.8286509513855 4.29889440536499 4.36320829391479 4.2941517829895 3.95863652229309 3.24057388305664 2.89933156967163 1.93801474571228 2.17687058448792 2.31531310081482 1.78754150867462 1.99965608119965 2.09197402000427 0.562159657478333 1.37193787097931 1.26723182201385 0.108121767640114 -0.0492319911718369 -0.225696921348572 -0.339086502790451 0.649103581905365 1.13805615901947 1.96922194957733 1.82770752906799 2.02577471733093 2.03112053871155 1.992919921875 2.04847192764282 2.28621864318848 3.1571729183197 3.47893738746643 2.94409227371216 6.80773019790649 7.38353776931763 6.93978834152222 6.24815082550049 8.3280553817749 7.88406610488892 8.57652282714844 9.29435634613037 7.65094184875488 6.95976972579956 7.10442399978638 7.19476556777954 6.6505126953125 5.46501970291138 5.64000511169434 6.00775480270386 5.45806932449341 2.61253786087036 2.4417417049408 2.91531825065613 4.34349203109741 5.43979072570801 4.9149808883667 25.9072952270508 27.9988574981689 3.52124547958374 3.7986376285553 30.788703918457 24.5406436920166 10.5131578445435 7.4041428565979 7.3421688079834 6.903480052948 7.22539138793945 6.14200687408447 7.7415828704834 9.97864055633545 4.32441759109497 7.16159915924072 8.61803245544434 7.03763294219971 5.23787975311279 4.56673431396484 4.76413536071777 13.0893125534058 11.8696632385254 2.68841862678528 2.24264860153198 1.99567925930023 1.80059456825256 1.72987461090088 1.91547107696533 3.56970000267029 1.9923779964447 2.48331022262573 2.61260867118835 12.1595840454102 8.27998924255371 2.54852819442749 31.4080085754395 28.4256839752197 21.4022960662842 21.2580051422119 20.2652111053467 35.4026184082031 27.1116485595703 21.7121963500977 20.1796798706055 16.9289321899414 15.0663928985596 9.81412410736084 5.18541288375854 5.35161447525024 0.0453906431794167 -2.51977443695068 -3.61504554748535 -2.54324007034302 -2.05380511283875 31.6985263824463 0.595981776714325 16.8386383056641 -2.28064370155334 -1.89911329746246 1.09554040431976 7.14579296112061 4.62118721008301 7.8334903717041 1.25962710380554 13.9963188171387 -0.65062403678894 24.4564933776855 51.246395111084 0.808593571186066 23.4758548736572 20.2686424255371 19.6639175415039 1.74538481235504 1.32265746593475 1.51744794845581 1.72767472267151 2.04856324195862 2.31345510482788 2.50910496711731 2.55850172042847 2.07056736946106 7.19791030883789 2.13061809539795 2.43146991729736 2.59414839744568 1.97499775886536 2.23126983642578 1.33933675289154 1.88836812973022 1.46614968776703 14.8205633163452 10.1984357833862 3.3181619644165 2.93242287635803 3.32391619682312 3.22772860527039 3.47860980033875 3.44429016113281 3.28224444389343 3.21585273742676 2.74446964263916 3.10929465293884 3.1844334602356 3.90680336952209 4.24129056930542 4.44641447067261 4.68669366836548 4.66996908187866 5.15922927856445
6.81071662902832 7.01984310150146 5.67140436172485 16.8712387084961 1.98316013813019 5.14744567871094 6.02087640762329 5.91110992431641 6.78120374679565 6.41727685928345 5.14205169677734 4.75707387924194 4.5209641456604 4.49903726577759 4.05342721939087 3.34074854850769 3.0897262096405 2.06354856491089 2.29378652572632 2.4497697353363 0.544372081756592 2.12611627578735 0.897281110286713 0.629230499267578 1.45045387744904 1.32281613349915 -0.0813522636890411 -0.146570384502411 -0.265111774206161 -0.355701118707657 1.27564179897308 1.71927356719971 2.04010200500488 2.01585340499878 2.07428193092346 2.08629989624023 2.05423712730408 2.25051283836365 3.13587546348572 3.46531295776367 3.37375569343567 6.92553186416626 6.62393140792847 7.70154142379761 7.49241256713867 9.0177698135376 8.70012950897217 9.60787391662598 10.2650785446167 8.43250942230225 7.57966232299805 7.57177925109863 7.80898666381836 7.19966459274292 6.70535230636597 5.49429845809937 5.91717338562012 6.30063629150391 3.78641271591187 2.57964944839478 2.59670042991638 2.96935701370239 5.62516021728516 5.60425186157227 4.1220326423645 2.12891745567322 2.11231970787048 28.3926334381104 2.6244101524353 2.91679358482361 7.32998275756836 7.40581178665161 18.4410305023193 4.96706533432007 9.58559799194336 8.18127918243408 9.66304016113281 13.4389629364014 5.47593975067139 6.25085115432739 9.61708545684814 8.55881881713867 7.08550357818604 5.08123922348022 5.07677555084229 4.41316795349121 7.13323163986206 5.12232732772827 2.71679615974426 1.79329514503479 2.18448400497437 7.84682130813599 7.58471632003784 1.46202790737152 8.59217834472656 4.15944528579712 7.29916572570801 5.60377645492554 2.41357636451721 2.4875795841217 26.0778999328613 4.16630744934082 21.7018451690674 30.8758087158203 23.2832908630371 30.6086082458496 26.7520141601562 24.1538143157959 40.9665565490723 21.30348777771 19.6215152740479 15.191089630127 14.7619924545288 8.46077919006348 4.65665626525879 12.0982294082642 3.16449666023254 -1.82966101169586 -1.6166285276413 -2.10476493835449 -3.28468108177185 3.51999163627625 -1.49206173419952 6.12185525894165 1.02485597133636 8.40585899353027 12.6384010314941 8.93779182434082 9.85981941223145 2.98328900337219 -1.19860279560089 -0.365714818239212 38.7443618774414 0.563454210758209 1.14395928382874 1.1035623550415 38.1329612731934 19.5598487854004 15.4435901641846 2.31162095069885 1.78811240196228 2.18650364875793 2.26642036437988 2.55394649505615 2.72052764892578 2.46089029312134 2.36584568023682 2.4656229019165 2.57314038276672 2.94634175300598 3.47452902793884 2.93825745582581 3.46040964126587 1.89015090465546 2.26579523086548 21.0510368347168 15.5831594467163 7.82095289230347 5.01226949691772 3.75791311264038 3.62809681892395 3.56637763977051 3.67109894752502 3.69598650932312 3.50929737091064 3.35011553764343 3.0740180015564 3.22215485572815 3.86197519302368 4.38170146942139 4.60781955718994 4.75650024414062 4.83458280563354 4.73090505599976 5.33883285522461
7.91929388046265 7.25348329544067 34.3270645141602 9.55818843841553 4.82687759399414 5.98908185958862 6.50599765777588 7.35643005371094 6.09773969650269 6.88814210891724 5.15509033203125 4.96954774856567 4.68998193740845 4.77309608459473 4.33500480651855 3.22249269485474 2.16126585006714 2.45149040222168 2.66837596893311 2.43997764587402 1.90191745758057 2.22867035865784 0.789616286754608 1.71295833587646 1.53549122810364 0.0161633510142565 -0.0935551896691322 -0.169991597533226 -0.266930490732193 0.861096382141113 1.36447131633759 2.2151882648468 1.99317526817322 2.17262411117554 2.17194771766663 2.07313394546509 2.09002709388733 2.28986835479736 3.18919658660889 3.51234936714172 3.15281224250793 7.2719898223877 8.02123069763184 7.32730340957642 8.10085773468018 9.70406341552734 9.28818511962891 10.1989517211914 11.2315015792847 9.28220653533936 8.08173561096191 8.26655769348145 8.29313850402832 7.67819452285767 6.22496461868286 6.39365577697754 6.79861927032471 6.32561159133911 2.86638069152832 2.59692406654358 3.05801868438721 4.76568508148193 6.04572772979736 5.43725538253784 3.68550562858582 5.9103102684021 9.33713912963867 1.85894477367401 5.57171058654785 3.51686191558838 20.4066390991211 11.3140068054199 3.51915121078491 21.8365898132324 11.1164350509644 7.26450490951538 11.4785737991333 17.3951587677002 6.55279636383057 8.28963184356689 10.2120132446289 10.4033346176147 5.9837384223938 5.31111717224121 5.38012647628784 38.068603515625 3.0034601688385 3.32052326202393 3.2458176612854 2.05573034286499 2.24559092521667 4.85570096969604 18.5640754699707 2.32245683670044 2.11913514137268 4.94332218170166 13.7999114990234 14.1859502792358 2.46314239501953 2.73024868965149 21.1855583190918 19.7286949157715 20.9690437316895 29.5959529876709 27.4052982330322 22.8682346343994 15.5993585586548 37.6360168457031 15.2049684524536 24.2572917938232 24.8584651947021 31.7627334594727 12.6477851867676 18.4271640777588 4.75774431228638 13.9514980316162 12.4392614364624 7.84094333648682 5.88083505630493 -1.18424558639526 21.9200801849365 0.400253504514694 5.52195882797241 11.0633029937744 8.22098541259766 24.2335433959961 11.1104011535645 14.3201513290405 7.14997434616089 6.20056390762329 -0.263659626245499 -0.134683459997177 0.791752994060516 1.22196626663208 1.20929574966431 7.35438251495361 1.82902944087982 31.2799606323242 22.6138668060303 3.72732472419739 3.48015427589417 3.37872242927551 3.25545430183411 3.13625621795654 3.05075216293335 3.44366359710693 3.57905888557434 3.14546179771423 4.3834080696106 4.44275140762329 4.4576416015625 3.55300045013428 3.64810490608215 2.20309233665466 10.4652709960938 21.0744361877441 23.6731071472168 7.54461002349854 3.22612833976746 3.96115469932556 3.80449366569519 3.78972887992859 3.85754680633545 3.90416884422302 3.70921778678894 3.40233945846558 3.37480425834656 3.43168425559998 4.17150259017944 4.55242681503296 4.74473237991333 4.98579359054565 4.97440195083618 5.54869413375854 5.63096570968628
10.0591564178467 6.95623016357422 4.72415637969971 2.34652853012085 6.21510028839111 7.31238508224487 7.02969264984131 8.04715728759766 7.4260196685791 5.90656852722168 5.33114004135132 5.23097133636475 5.14612340927124 4.67556047439575 3.85241842269897 3.40839815139771 2.27696132659912 2.51708054542542 2.81745004653931 2.10794353485107 2.33619165420532 2.34877038002014 0.801325857639313 1.83405184745789 1.64853966236115 0.00703637534752488 -0.0769669339060783 -0.204879283905029 -0.288692682981491 0.909650683403015 1.65843462944031 2.31393575668335 2.20081090927124 2.23661613464355 2.2417266368866 2.15433788299561 2.35171914100647 3.26419472694397 3.54197025299072 3.39159512519836 7.68818521499634 7.29912614822388 8.40663051605225 8.68863582611084 7.14483833312988 10.4851226806641 10.029483795166 10.984676361084 11.9424438476562 9.83433723449707 8.82549953460693 8.91946506500244 8.2784595489502 7.66985416412354 6.34194183349609 6.73110246658325 7.17956972122192 5.65239286422729 3.02913784980774 3.09901404380798 3.06077003479004 4.89873027801514 6.2887601852417 4.66983652114868 2.80199098587036 2.71274828910828 2.11475872993469 29.9479370117188 3.68149352073669 39.3878555297852 9.98760223388672 11.1168270111084 5.92661142349243 3.0234227180481 15.7947998046875 22.3040504455566 29.906925201416 7.96806764602661 8.61606979370117 11.4490184783936 10.6965684890747 13.3318195343018 5.73699235916138 5.74518489837646 4.62839269638062 3.112135887146 3.51347780227661 3.48145818710327 7.613525390625 2.42196249961853 6.94820737838745 1.71532702445984 1.968376994133 13.3216724395752 2.22110366821289 2.44712471961975 2.71967792510986 2.59418153762817 2.78161144256592 13.9019317626953 17.6042575836182 8.33912563323975 17.6843338012695 12.602484703064 25.3182888031006 26.3393974304199 27.0810279846191 25.9179801940918 30.7662372589111 29.6395301818848 16.534969329834 10.9835634231567 10.7677698135376 8.47837543487549 32.1248931884766 12.3215885162354 14.5266141891479 9.80570602416992 6.75533962249756 0.452054560184479 -1.86535382270813 -0.417811751365662 2.69217371940613 15.2295789718628 11.4568510055542 9.04288291931152 18.0440692901611 20.4530849456787 9.71710872650146 5.3326735496521 4.37255430221558 0.778347432613373 1.93003070354462 2.3014087677002 2.18370771408081 1.63316321372986 1.85963380336761 2.37685513496399 3.11519360542297 4.26049470901489 4.5729193687439 3.96655869483948 4.3378849029541 4.09286975860596 3.65546727180481 4.28265333175659 4.16231107711792 3.6340765953064 10.6169462203979 4.97865772247314 4.65595149993896 4.14386129379272 3.68743276596069 4.27088451385498 52.8939666748047 41.4683570861816 17.9546928405762 12.9467868804932 4.10721111297607 3.95882177352905 3.88058757781982 4.00350427627563 4.08945941925049 3.94101047515869 3.77394556999207 3.63004612922668 3.6103036403656 4.20726728439331 4.72419214248657 4.92949533462524 5.08519077301025 5.13792133331299 5.1082968711853 5.72378396987915 5.85466718673706
14.2444744110107 12.5157146453857 13.9671573638916 2.69092035293579 7.16094589233398 8.00991249084473 8.83384704589844 7.10977745056152 8.02607345581055 5.9881534576416 5.85841274261475 5.62973165512085 5.74311637878418 5.19680595397949 4.03531122207642 3.65843987464905 2.7213249206543 2.95707774162292 2.82099962234497 0.633279919624329 2.47848010063171 0.766999006271362 1.94509315490723 1.91841971874237 0.146585196256638 0.00860183499753475 -0.0840498879551888 -0.198329627513885 -0.281558901071548 1.62938988208771 2.1395149230957 2.4208288192749 2.29138970375061 2.39851069450378 2.22947287559509 2.21480703353882 2.42628502845764 3.35857653617859 3.63442778587341 3.19619870185852 8.11617469787598 8.85255432128906 8.01391983032227 9.61660480499268 11.6848402023315 12.1933135986328 12.6645822525024 13.72412109375 11.1937427520752 9.63703346252441 9.50958919525146 9.37474822998047 8.6507625579834 6.84345483779907 7.05970859527588 7.59832429885864 7.3183536529541 4.32664966583252 3.18002772331238 3.13801741600037 5.21923589706421 6.47673368453979 6.50469207763672 4.78270435333252 2.97785902023315 2.81944537162781 2.73120522499084 2.38765788078308 4.41659450531006 1.70739996433258 19.4124221801758 14.1132946014404 10.4412479400635 26.0733947753906 15.6239423751831 2.81450366973877 2.5741925239563 7.02937364578247 8.9796895980835 19.516809463501 29.6145420074463 9.10668087005615 5.93418264389038 6.0010027885437 5.14941596984863 5.09692525863647 6.8586540222168 3.76912546157837 3.965815782547 2.72787380218506 5.17362117767334 1.74745881557465 1.89130389690399 2.04006052017212 3.28727173805237 2.8158004283905 2.70207500457764 2.66009497642517 2.83326077461243 2.53624939918518 1.74418306350708 14.3915414810181 9.25885200500488 12.6371622085571 15.8890810012817 28.1256408691406 36.852653503418 20.0865802764893 25.8586845397949 29.5415172576904 24.9131107330322 13.6558694839478 12.572772026062 6.42850160598755 1.21961498260498 11.9030199050903 29.1958789825439 12.9154491424561 2.90158414840698 2.57344317436218 0.56224125623703 18.1241283416748 5.61569356918335 23.5347537994385 21.9580631256104 12.8190631866455 25.5633335113525 15.6334466934204 15.7764263153076 6.44872522354126 5.90642356872559 2.6896059513092 4.91545009613037 4.85075521469116 2.57883810997009 18.212869644165 8.45040798187256 3.54085969924927 4.28166389465332 4.7230339050293 4.94578266143799 5.28369998931885 4.74428081512451 4.79722738265991 4.99700021743774 4.76068019866943 4.96437931060791 7.55483675003052 14.0568408966064 5.28535938262939 4.58838224411011 4.31650543212891 3.92695355415344 35.3920288085938 1.16057538986206 1.54622864723206 25.9339084625244 3.50009655952454 4.27836322784424 4.13900089263916 4.13158464431763 4.18925666809082 4.26257562637329 4.12446928024292 3.88503956794739 4.00407838821411 3.8332827091217 4.57715797424316 4.93084287643433 5.05992031097412 5.31974172592163 5.31087970733643 5.99803113937378 6.09356451034546 6.52547788619995
8.01555061340332 15.2333726882935 2.79814505577087 6.76546478271484 7.84234428405762 8.80638313293457 9.61287212371826 8.80392932891846 6.93708896636963 6.42150115966797 6.3682541847229 6.38899278640747 5.85651159286499 4.67185592651367 4.00409555435181 2.56668496131897 2.91717672348022 3.36639714241028 2.51727271080017 2.78722214698792 2.72329616546631 0.81999146938324 2.03169512748718 1.99642288684845 0.122502751648426 0.0184318982064724 -0.117406375706196 -0.216109842061996 1.10903525352478 1.70846450328827 2.68396711349487 2.42086267471313 2.52912974357605 2.50984239578247 2.31304335594177 2.57464575767517 3.5293025970459 3.78945469856262 3.55365085601807 8.81577587127686 8.21102714538574 9.34584903717041 11.1117897033691 8.42446708679199 15.3380794525146 12.3320560455322 14.5089902877808 15.3096485137939 12.4507331848145 10.2144136428833 10.3618297576904 9.5073709487915 8.59108257293701 6.95694732666016 7.31226825714111 7.83595848083496 6.06269025802612 3.62002515792847 3.57122611999512 3.59508466720581 5.33461236953735 6.94083642959595 6.15642166137695 2.72773170471191 2.98106360435486 2.89901089668274 4.43600130081177 4.65118551254272 4.02137422561646 3.74058079719543 2.72954678535461 7.34074115753174 17.7707538604736 2.83749413490295 3.63525152206421 2.97531652450562 3.46318316459656 5.97717189788818 9.81530380249023 10.8912963867188 6.95853137969971 10.2582349777222 6.65074348449707 4.82328653335571 5.48367595672607 6.75797176361084 3.69289231300354 3.91558265686035 5.2171835899353 2.75908398628235 1.75740611553192 2.02830290794373 7.03000593185425 2.83633804321289 2.48013710975647 4.29463577270508 3.05256819725037 3.0781683921814 8.01761722564697 2.64940643310547 1.99256694316864 0.886149942874908 0.991043567657471 6.42902231216431 5.99067831039429 11.2393894195557 8.4209156036377 31.798999786377 43.0708808898926 18.3839797973633 25.2921123504639 13.7779855728149 14.2238702774048 6.18375396728516 2.53012442588806 -0.0394489243626595 5.36676359176636 1.69495165348053 4.96365213394165 4.64783620834351 2.02584385871887 2.50475478172302 26.6282424926758 20.0253925323486 34.6914825439453 26.5717906951904 5.03568363189697 30.6775302886963 9.62521171569824 8.37164688110352 5.8036003112793 6.62192106246948 4.25131034851074 6.00487375259399 3.7134997844696 2.55260324478149 2.86561036109924 4.23239421844482 4.54354190826416 4.91715097427368 5.20907783508301 5.56435537338257 6.00109100341797 5.97913026809692 6.04029321670532 5.89850473403931 5.17291069030762 4.42151641845703 5.22652292251587 5.31044483184814 4.73909330368042 4.23202085494995 25.7888164520264 10.9404449462891 2.77312016487122 1.77568328380585 2.58419370651245 4.35386943817139 4.24073171615601 4.18033599853516 4.32627820968628 4.39618396759033 4.42563772201538 4.33755159378052 4.45221710205078 4.55893707275391 4.61067867279053 5.12577772140503 5.27177667617798 5.24043369293213 5.45938539505005 5.48472595214844 6.30238485336304 6.44339179992676 6.75273942947388
11.9427042007446 26.1312675476074 3.56097006797791 8.68153762817383 10.2671098709106 9.4183521270752 10.5726413726807 9.50454998016357 6.93703126907349 6.86966037750244 6.65593767166138 6.84216833114624 6.27365207672119 4.82018327713013 4.3177604675293 2.79756879806519 3.78224062919617 3.41973423957825 0.73490446805954 3.01410388946533 0.938678801059723 0.968071520328522 2.17316198348999 1.99247741699219 1.23564910888672 0.244655892252922 -0.107006832957268 -0.165536940097809 1.90989661216736 2.46009635925293 2.79796504974365 2.70781016349792 2.82212853431702 2.49834680557251 2.45531511306763 2.69495344161987 3.66733074188232 3.937091588974 3.36598706245422 9.52864456176758 10.1705474853516 9.14383411407471 12.8220863342285 14.9803819656372 19.7321681976318 15.8514013290405 17.5921440124512 14.9674110412598 12.2737951278687 11.6492347717285 11.0183629989624 10.0626430511475 7.65642023086548 7.80560922622681 8.35578727722168 8.22042179107666 4.49455785751343 4.25830554962158 4.40092182159424 4.36496067047119 7.07347440719604 7.09106922149658 5.20399808883667 3.0047812461853 2.99763870239258 2.8610463142395 4.60051679611206 4.81362867355347 3.6126081943512 3.86779832839966 14.5156984329224 11.3475589752197 6.24147319793701 3.00685214996338 25.0425987243652 3.5014271736145 3.46768927574158 6.99219608306885 13.484712600708 12.0276479721069 7.41556024551392 9.44265365600586 7.16683578491211 5.16620635986328 8.36955070495605 6.47867870330811 5.15138339996338 13.3699340820312 3.10179162025452 5.47560977935791 1.80520617961884 2.04686737060547 2.70563244819641 2.92488121986389 2.67312407493591 2.85449409484863 11.8428401947021 8.53273677825928 2.59927606582642 3.72588157653809 3.76499724388123 1.42261731624603 0.3951775431633 -0.493678838014603 13.6293153762817 24.3685665130615 22.1930465698242 3.76613974571228 7.41514778137207 16.8596496582031 17.0644912719727 15.0668182373047 14.1730613708496 10.5504417419434 3.83571887016296 0.400903761386871 0.947382271289825 3.82651710510254 3.11738610267639 2.5918653011322 2.44372010231018 10.5707836151123 15.4611787796021 7.36404037475586 12.7948169708252 5.16233396530151 7.77505922317505 2.97020626068115 12.7921476364136 11.4515018463135 7.60131120681763 8.565354347229 5.27663326263428 7.54327344894409 5.10343599319458 5.57408475875854 4.61816453933716 4.68548440933228 5.04799175262451 5.33573150634766 5.66227436065674 5.84359121322632 6.32569551467896 6.33226823806763 6.22269868850708 6.12860727310181 6.22333383560181 5.41502141952515 5.40627431869507 5.27570724487305 10.558895111084 4.487868309021 3.3842511177063 2.19143533706665 15.0378570556641 2.8003306388855 3.58625316619873 4.49153327941895 4.38249063491821 4.41830158233643 4.48846530914307 4.57892894744873 4.5894980430603 4.48665571212769 4.57714176177979 4.67360496520996 4.90555238723755 5.26609897613525 5.40682506561279 5.57880353927612 5.67102098464966 5.75763559341431 6.71817255020142 7.19404029846191 6.91074752807617
47.6424255371094 3.75526237487793 9.23051643371582 10.0157356262207 11.7114763259888 12.4813861846924 9.44444561004639 10.395191192627 7.42676401138306 7.38385581970215 7.38105249404907 6.78206300735474 5.46634817123413 4.85404109954834 3.07407760620117 3.36567163467407 4.09035348892212 3.01543855667114 3.40061855316162 3.26923632621765 1.13458478450775 2.43264198303223 2.30409073829651 0.161935240030289 0.0362029299139977 0.0118845291435719 0.853710472583771 1.33981287479401 1.99167811870575 3.03379154205322 2.78536415100098 2.97011566162109 3.01237535476685 2.65835475921631 2.97231817245483 3.96541142463684 4.18670177459717 3.86648368835449 3.20757555961609 10.3615436553955 10.9291715621948 16.8099155426025 12.249249458313 36.7195281982422 18.7137336730957 21.3006477355957 20.6269035339355 17.4109783172607 13.3599939346313 12.6936674118042 11.8591575622559 10.9243860244751 8.21327686309814 8.19619178771973 8.75042915344238 8.67652702331543 3.22903227806091 3.59307098388672 3.71820831298828 5.62051773071289 7.50356388092041 6.59833097457886 3.34024405479431 3.0671648979187 3.00966143608093 4.74397420883179 5.04130029678345 4.37435102462769 4.05974674224854 7.08491134643555 19.995922088623 3.18046927452087 3.6573805809021 8.77357387542725 3.06362414360046 12.7155828475952 3.75542688369751 10.7150707244873 14.7491598129272 10.517017364502 6.11232328414917 13.1047220230103 8.06743335723877 6.96679449081421 9.70017051696777 7.90530776977539 10.6419334411621 4.57771825790405 3.38751459121704 3.35902786254883 2.67714476585388 2.52790307998657 3.26729488372803 3.17000889778137 3.24996876716614 3.14220404624939 8.38337230682373 7.68317222595215 3.21879434585571 7.86368227005005 2.02004456520081 1.30390226840973 0.211860582232475 -0.443702071905136 -0.857430696487427 2.43879961967468 7.11335372924805 5.268874168396 15.2118453979492 14.829291343689 14.7501411437988 18.6683864593506 13.3478984832764 20.8934555053711 3.96108436584473 5.21309041976929 4.80864381790161 3.5059986114502 3.93831706047058 8.87707138061523 22.9901466369629 0.257790893316269 -0.710479557514191 4.15986108779907 12.7203359603882 40.4697761535645 13.5430545806885 20.8895053863525 15.939115524292 10.6000633239746 11.5332460403442 7.61255741119385 9.60147857666016 6.89602088928223 5.74999189376831 7.05455207824707 5.79379272460938 5.24102830886841 5.51255416870117 5.67763805389404 5.98994207382202 6.49615049362183 6.57395505905151 6.5791711807251 6.46707963943481 6.26134157180786 6.47999477386475 6.44397401809692 6.04002285003662 5.39450645446777 4.74969053268433 4.72984170913696 4.17002725601196 3.23118090629578 2.6046142578125 3.4975004196167 4.52943992614746 4.39918375015259 4.37977838516235 4.56652975082397 4.69131708145142 4.72964429855347 4.65283489227295 4.87578725814819 4.81869792938232 4.66748857498169 5.07648992538452 5.63787126541138 5.63044309616089 5.75977659225464 6.03838968276978 6.98661231994629 7.16206312179565 7.49814891815186 7.17706108093262
-0.554031848907471 5.94316244125366 12.0039234161377 14.3955221176147 12.5999250411987 14.1716136932373 12.2913188934326 8.97148704528809 8.13712501525879 7.69616031646729 7.96168279647827 7.3231406211853 5.59723424911499 5.18597888946533 3.37220764160156 4.57417583465576 4.0736665725708 0.825273633003235 3.64051008224487 1.13209319114685 1.28663921356201 2.50067067146301 2.35190868377686 0.118690803647041 0.0706444531679153 -0.0708490833640099 -0.114147812128067 2.21889042854309 2.81595253944397 3.15477633476257 3.08710932731628 3.31092524528503 3.14655303955078 2.84699773788452 3.15665078163147 4.18089246749878 4.40048170089722 3.68342924118042 12.066294670105 11.0275802612305 11.907525062561 22.5539360046387 23.1476497650146 10.2149562835693 36.6973686218262 28.6781692504883 22.8011283874512 16.7611351013184 15.4049158096313 13.5717172622681 12.2644748687744 10.7174396514893 8.9715747833252 9.61321830749512 9.87540626525879 4.72578620910645 2.66519355773926 2.74604630470276 3.14601159095764 7.74136257171631 7.72880029678345 5.54113388061523 3.40457963943481 3.07981419563293 2.96483969688416 4.88858985900879 5.13445425033569 3.91422724723816 4.20616483688354 38.9924697875977 17.4411582946777 3.31824254989624 3.81343412399292 8.12906455993652 6.13726902008057 3.55971574783325 11.178484916687 19.076192855835 14.2097663879395 30.2233963012695 16.0019950866699 12.9770822525024 7.32228422164917 12.544810295105 9.42399215698242 10.0936441421509 40.4551010131836 3.77349138259888 3.47535085678101 3.00280141830444 3.11301779747009 2.80297207832336 3.3734872341156 3.57613563537598 3.72866630554199 3.15401434898376 2.99171352386475 11.7565040588379 8.8868465423584 3.30481362342834 2.69671940803528 1.19628536701202 0.109702587127686 7.22124576568604 4.58956956863403 6.22321510314941 6.51192903518677 18.0376529693604 2.43071246147156 24.6178169250488 21.4902935028076 21.706916809082 15.1457529067993 4.79435396194458 11.0278539657593 3.50294089317322 6.66610956192017 7.09575080871582 6.59397029876709 12.1570301055908 8.2200345993042 28.4772777557373 -0.157783582806587 5.86781978607178 7.03893518447876 7.95459794998169 37.6684341430664 9.03030014038086 23.1317329406738 13.7692823410034 14.8236112594604 9.76744079589844 12.0673170089722 9.02916812896729 5.72001600265503 8.77299785614014 7.40817070007324 5.90099096298218 6.14320421218872 6.20792484283447 6.35571956634521 6.78110694885254 6.83588600158691 6.73110580444336 6.66508531570435 6.82687664031982 6.48412942886353 6.64164924621582 5.90545892715454 5.49360609054565 5.06789302825928 4.46418333053589 4.2086877822876 3.42228817939758 3.28276205062866 3.84727263450623 4.76257133483887 4.52987718582153 4.47722148895264 4.69447326660156 4.84851837158203 4.88997936248779 4.78494739532471 4.9926929473877 4.93403959274292 5.06182146072388 5.62706327438354 5.78710222244263 6.02321815490723 6.03002643585205 6.26106643676758 7.39108180999756 7.98738861083984 7.6906213760376 7.80241298675537
5.52354383468628 14.9814825057983 14.3000516891479 17.1218185424805 17.3453845977783 12.5877523422241 14.0080528259277 9.43655014038086 8.58511734008789 8.52469825744629 7.97542858123779 6.36745643615723 5.6458683013916 3.67956304550171 4.07453346252441 5.21034955978394 3.72387886047363 4.34729146957397 3.98880696296692 1.38730382919312 2.73357152938843 2.54898524284363 0.184736356139183 0.107038900256157 0.107329465448856 -0.0481938049197197 1.57756590843201 2.2727906703949 3.4308648109436 3.14943981170654 3.33674716949463 3.46331787109375 3.04053282737732 2.9621844291687 3.3488302230835 4.41798496246338 4.62840509414673 3.71264266967773 13.601767539978 13.8790798187256 42.5401306152344 31.7719497680664 46.5111045837402 22.4777164459229 22.9674072265625 35.492748260498 29.6058197021484 20.3298931121826 17.532320022583 14.6455326080322 13.3076763153076 9.85765838623047 9.45285511016846 10.209566116333 10.8315935134888 3.08958101272583 2.69193410873413 3.19502782821655 6.0304651260376 8.31051921844482 7.19763326644897 2.57929563522339 3.08349013328552 3.07895517349243 5.1308856010437 5.40510129928589 4.61663293838501 4.33156251907349 21.0324668884277 2.23392271995544 7.04425764083862 3.98029756546021 5.30650186538696 6.43113994598389 13.294379234314 3.78943753242493 14.8798274993896 23.3819999694824 12.9064826965332 6.47138738632202 6.42773866653442 10.9755830764771 10.6535034179688 15.633900642395 14.6852207183838 32.0643653869629 2.96823716163635 3.67983245849609 3.59148859977722 19.8440113067627 3.97252798080444 4.39934253692627 4.46210670471191 4.54428148269653 4.08086109161377 3.8759286403656 3.09679889678955 15.8997611999512 3.14155340194702 3.08428287506104 2.4913923740387 1.42742395401001 4.33885669708252 -1.42076754570007 -2.07534408569336 -2.85226106643677 5.71563005447388 -1.35115480422974 15.5059633255005 22.0512924194336 28.3614463806152 19.9271144866943 5.82816791534424 7.26799249649048 5.6581974029541 11.1097478866577 7.65967178344727 14.6494169235229 30.810188293457 11.4269800186157 1.1561975479126 0.205589845776558 16.8238697052002 -0.550670921802521 6.30251121520996 6.86473321914673 5.94316148757935 41.7343559265137 24.7995300292969 18.5096492767334 11.4222011566162 14.1262502670288 10.971565246582 9.21795558929443 10.8700551986694 9.52120304107666 6.79463624954224 7.2288646697998 6.60224580764771 6.86951017379761 7.16944885253906 7.10194778442383 7.01105260848999 6.94375419616699 6.87588262557983 7.06326293945312 7.00283622741699 6.62161207199097 6.12054824829102 5.60971736907959 5.2660813331604 4.90177154541016 4.40671682357788 4.10288286209106 4.06667280197144 4.48002195358276 5.08479118347168 4.75515604019165 4.73900175094604 4.81880617141724 5.00248861312866 4.90688991546631 5.13994121551514 5.09054756164551 4.92940378189087 5.43415641784668 5.85169744491577 6.1436243057251 6.61624717712402 6.37405157089233 7.26730632781982 7.70782089233398 8.36258602142334 8.07392406463623 10.1436061859131
12.7884864807129 20.3008213043213 22.8888645172119 18.0758857727051 20.617696762085 17.3772106170654 12.2467107772827 10.9060106277466 9.61929798126221 9.31871795654297 8.65758514404297 6.47057580947876 6.08096981048584 3.96147394180298 4.33595561981201 5.85706090927124 1.29559409618378 4.79895734786987 1.29121446609497 1.5517909526825 2.85214233398438 2.72110891342163 0.139418721199036 0.096305713057518 0.112834580242634 0.283245623111725 2.57641220092773 3.22898817062378 3.55635118484497 3.49073314666748 3.45783805847168 3.62144255638123 3.17261624336243 3.68296790122986 4.87747240066528 5.10797309875488 4.58543634414673 16.844877243042 15.3143749237061 15.6754951477051 5.35038995742798 34.6730880737305 10.4142847061157 23.1570606231689 23.0369281768799 50.0556602478027 28.6710319519043 26.6380004882812 19.1851463317871 15.9403448104858 13.0060272216797 10.1470441818237 11.35182762146 12.8802547454834 5.2248330116272 3.087890625 2.90526270866394 3.2147855758667 8.87937545776367 8.74008464813232 6.18518400192261 3.08028340339661 3.09982419013977 3.01386260986328 5.29702234268188 5.62634515762329 4.14045763015747 4.51919603347778 4.2886381149292 2.80623650550842 5.11204719543457 9.08402442932129 15.7692956924438 20.8605003356934 15.4160938262939 22.0161590576172 32.5353965759277 23.6391353607178 18.4366493225098 9.32045364379883 8.30498886108398 11.0668830871582 21.2352142333984 19.9586925506592 30.9942569732666 3.35289597511292 3.94194483757019 3.93561100959778 8.40965366363525 3.15614414215088 4.21101999282837 4.87167501449585 4.98993301391602 4.65463209152222 4.78697443008423 4.07017135620117 3.06718182563782 3.15950894355774 12.8882989883423 3.31149983406067 2.79981184005737 1.83890187740326 -0.416325449943542 -1.19454717636108 -1.90523838996887 3.64631366729736 -2.15970420837402 10.3828506469727 -1.28890538215637 33.0430641174316 7.81588077545166 23.1182537078857 11.4559345245361 11.3329610824585 8.18966197967529 21.4659996032715 28.5954685211182 17.953784942627 1.82757353782654 24.9945793151855 15.4328746795654 1.66434383392334 1.03282034397125 7.09912824630737 15.7748203277588 4.11783504486084 7.60606908798218 1.33365392684937 11.6168394088745 24.6958026885986 13.8038988113403 16.3976211547852 12.5667791366577 7.00678300857544 12.5660791397095 11.4304676055908 9.08828735351562 8.14020919799805 7.14957284927368 7.32467699050903 7.60010242462158 7.49690628051758 7.27917718887329 7.16040086746216 7.39531803131104 6.94947719573975 7.23346614837646 6.91516828536987 6.20179843902588 5.5684642791748 5.15523195266724 4.98904132843018 4.58398771286011 4.31820774078369 4.62715816497803 5.58420944213867 5.21057176589966 4.92287683486938 4.96861743927002 5.02863168716431 5.0547981262207 5.01190805435181 5.259192943573 5.21937561035156 5.42300510406494 6.25594758987427 6.17764186859131 6.55586862564087 7.07672452926636 7.56300067901611 8.49289417266846 8.61374759674072 8.9379301071167 12.0472755432129 12.7015237808228
28.4952945709229 25.9337882995605 31.2982921600342 27.8200244903564 18.6928577423096 20.9219207763672 14.0235042572021 11.3717889785767 10.8742427825928 10.3353319168091 9.51596164703369 6.53809595108032 4.20422887802124 4.75704431533813 6.79036378860474 5.86959838867188 4.50812816619873 5.25112295150757 1.74768030643463 3.26448249816895 3.11866593360901 1.41835498809814 0.134779319167137 0.057261623442173 0.387101918458939 1.84555041790009 2.6916172504425 3.90443444252014 3.61882138252258 3.7928249835968 4.03976917266846 3.4017276763916 3.27689862251282 3.83831167221069 5.10784530639648 5.38697290420532 4.40094041824341 20.0976619720459 19.2833614349365 18.5467338562012 6.88947200775146 1.36802291870117 1.34089684486389 0.405932724475861 1.77520251274109 4.77688932418823 46.1966133117676 30.2231731414795 25.2118034362793 18.4722919464111 13.2315607070923 11.1530990600586 12.8437213897705 14.6970872879028 3.48643636703491 3.63361716270447 3.37894821166992 6.76443815231323 9.68083572387695 8.26993656158447 2.74862742424011 3.23483562469482 3.18066477775574 3.09028244018555 5.54311800003052 5.93208360671997 4.78530550003052 5.54725980758667 4.55541229248047 4.67259359359741 20.1976642608643 32.6314353942871 11.2158355712891 20.6060161590576 3.9368634223938 50.3167343139648 42.1751327514648 25.311164855957 15.9160890579224 16.2603092193604 17.2595672607422 18.5301761627197 38.5345191955566 40.8810424804688 4.36709833145142 4.49999380111694 3.85520052909851 19.7921562194824 4.20575428009033 4.28198623657227 4.93351364135742 5.09167861938477 6.72612762451172 5.35500907897949 5.66100311279297 4.49204015731812 3.9404604434967 3.67085123062134 3.48922920227051 4.1885199546814 11.2336378097534 1.61033475399017 0.150141283869743 -1.32768201828003 -1.7736964225769 -1.78125548362732 -1.61495053768158 -1.04963874816895 6.83930349349976 -0.190312847495079 8.55683135986328 3.92601203918457 12.0157709121704 8.18886089324951 35.0216407775879 10.5518264770508 1.84303939342499 17.2885608673096 33.9815902709961 12.9330015182495 2.47452688217163 14.062479019165 0.0564415417611599 32.0292015075684 9.02875900268555 10.7812471389771 0.914551019668579 7.04947280883789 44.5212593078613 19.4651279449463 21.2873878479004 16.1563549041748 12.1270246505737 14.2830276489258 13.2717046737671 9.32299613952637 10.6364231109619 9.34862232208252 7.30874395370483 8.0579719543457 7.95535278320312 7.64073133468628 7.4656720161438 7.40848255157471 7.65865325927734 7.18931007385254 7.44659042358398 6.80761957168579 6.32302093505859 5.8321533203125 5.37364721298218 4.84744882583618 4.85243654251099 4.71817064285278 5.17177057266235 5.86066102981567 5.50823926925659 5.3591136932373 5.24031591415405 5.2497239112854 5.0625786781311 5.36405467987061 5.37311601638794 5.23153257369995 5.84495878219604 6.90157270431519 6.63480949401855 7.74819040298462 7.37034559249878 8.43166923522949 9.28274631500244 11.9681386947632 14.047739982605 18.7688655853271 17.9383335113525
14.7688274383545 52.5073432922363 33.3038101196289 37.0993804931641 27.8001613616943 19.0787754058838 16.6645469665527 13.2054100036621 12.2633047103882 10.9450025558472 8.17813682556152 7.02675437927246 4.50817060470581 5.14790868759155 7.77402210235596 5.31581449508667 6.58226108551025 5.67551565170288 1.95668470859528 3.53988766670227 3.40161442756653 1.45613467693329 1.0271338224411 1.03662824630737 0.302192091941833 1.91600811481476 3.0032696723938 4.0909571647644 3.89562368392944 3.97140145301819 4.31258487701416 3.56512570381165 4.22800636291504 5.57553911209106 5.87640523910522 5.28246212005615 27.7464981079102 25.2896862030029 25.3533363342285 18.3267021179199 8.78237438201904 0.429302453994751 6.20643281936646 5.14210176467896 4.30921030044556 4.38617515563965 13.1484050750732 44.5116119384766 26.9523487091064 18.2605724334717 14.1131753921509 17.1547107696533 19.2219886779785 8.72450923919678 3.52285480499268 2.98384070396423 3.39227533340454 7.08653211593628 10.3983125686646 7.35879278182983 3.28569984436035 3.33172106742859 3.21558523178101 5.8964695930481 6.30794334411621 5.41884183883667 5.05692005157471 5.8305926322937 4.6044979095459 5.79083299636841 4.55085229873657 3.78768515586853 15.0182094573975 3.56208539009094 51.0250434875488 40.9593124389648 41.0184516906738 33.4019966125488 22.6444511413574 24.0054550170898 36.5754127502441 52.9748802185059 7.51341104507446 3.8996593952179 4.46255302429199 5.06978940963745 10.0350942611694 6.35730409622192 4.27791357040405 4.64598369598389 5.23835849761963 6.26886892318726 7.66282224655151 5.91452026367188 8.22814846038818 5.13486957550049 4.30257701873779 4.02361106872559 3.50918579101562 5.83909320831299 2.24586725234985 1.52855432033539 0.678493022918701 5.36988353729248 -1.51566851139069 -1.47318053245544 -1.20519948005676 -0.468444168567657 -0.325428158044815 0.102836035192013 0.684240460395813 12.7895984649658 20.148998260498 14.3717012405396 1.28068697452545 2.01856231689453 2.00080037117004 1.92318511009216 1.4592649936676 1.14614474773407 0.676060020923615 0.390130937099457 1.059574842453 0.160808503627777 2.22786355018616 0.568935513496399 1.80227243900299 4.82642078399658 2.00958681106567 34.7343673706055 29.2993221282959 22.7318859100342 10.064115524292 17.3153457641602 15.9348545074463 12.6958494186401 10.8044710159302 10.0562324523926 8.09806632995605 8.35325622558594 8.24197196960449 7.92577838897705 7.77524852752686 8.04231739044189 7.50045156478882 7.73275375366211 7.4184775352478 6.77342653274536 6.14118528366089 6.02342176437378 5.42120265960693 5.00285720825195 5.01932048797607 5.24549865722656 6.25702095031738 5.90050554275513 5.65979480743408 5.70434236526489 5.64465475082397 5.43188381195068 5.23325157165527 5.45959711074829 5.46761226654053 5.80030632019043 6.50225496292114 7.65942192077637 7.07422494888306 8.31191444396973 8.92511367797852 10.1892900466919 10.4252262115479 32.6430702209473 39.1558380126953 31.2272052764893 35.6435966491699
10.8413019180298 5.48689603805542 58.399845123291 33.4913024902344 37.2248992919922 26.55588722229 16.6676063537598 16.0599498748779 13.7730484008789 12.5489492416382 8.40659713745117 7.81753253936768 5.46713209152222 9.37232112884521 7.58885478973389 1.37875533103943 7.25731134414673 2.04389643669128 4.0383472442627 3.92145156860352 1.53546035289764 1.32534718513489 1.05186772346497 1.05294847488403 0.107889540493488 3.12472319602966 3.93777871131897 4.29628276824951 4.28025484085083 4.94155073165894 3.87225556373596 3.716721534729 4.4505729675293 5.82321214675903 6.1524658203125 4.95552062988281 36.0231399536133 33.1388130187988 33.4676933288574 19.4375801086426 16.4064788818359 14.173677444458 23.6176738739014 15.9107227325439 7.95979022979736 19.1310863494873 9.30390548706055 15.2862854003906 31.8815002441406 23.4811134338379 15.046106338501 23.1297473907471 25.5739974975586 5.88655519485474 2.92055654525757 3.31556677818298 7.66529083251953 11.6858758926392 11.1852645874023 7.86060428619385 3.40518379211426 3.41390681266785 3.33607864379883 6.27888679504395 6.69677400588989 4.87334012985229 5.30318784713745 6.10323190689087 5.5713005065918 6.10094738006592 6.15645694732666 29.8560886383057 4.89705085754395 5.10980701446533 26.4381675720215 6.20899438858032 52.699405670166 27.1990947723389 30.1435947418213 43.1813850402832 20.5730934143066 3.38207459449768 4.02364253997803 5.12710428237915 4.54346418380737 4.17940378189087 13.2910823822021 4.98059225082397 4.72176647186279 5.8198823928833 5.4076509475708 9.44552993774414 7.74822759628296 11.4708957672119 8.22138023376465 5.41536998748779 4.47480249404907 4.39121198654175 3.32552051544189 5.61590957641602 1.96213448047638 23.5233936309814 1.07757246494293 -0.210527822375298 -0.51451313495636 -0.327224761247635 0.107030659914017 0.260275483131409 0.136436998844147 0.661639630794525 1.18121707439423 1.29634988307953 10.1989812850952 16.274169921875 2.11557817459106 2.02076888084412 2.1438000202179 2.15492963790894 1.63091433048248 1.48184156417847 0.931881844997406 0.503348231315613 0.175042390823364 0.410870730876923 1.34671330451965 1.52364444732666 4.81540727615356 2.68013310432434 2.93420624732971 24.553316116333 41.0558662414551 22.5089893341064 22.5918369293213 20.6003341674805 12.4549322128296 15.3425388336182 12.501033782959 9.09788608551025 8.57307529449463 8.63730430603027 8.52150630950928 8.08960247039795 8.03731632232666 8.31258964538574 7.72118902206421 7.9514856338501 7.29304265975952 6.79013824462891 6.31246757507324 5.80888700485229 5.32836008071899 5.42359256744385 5.30894088745117 5.76903438568115 6.51209020614624 6.16044616699219 6.09382200241089 5.98888635635376 5.92913818359375 5.66493320465088 5.64994049072266 5.42911243438721 5.56035423278809 7.27847051620483 9.00526714324951 7.67739582061768 9.20113849639893 9.31920433044434 12.1322355270386 21.0455379486084 32.4359588623047 9.70211410522461 18.9743175506592 25.7334251403809 22.259069442749
-0.793933153152466 -1.06878352165222 -1.49220395088196 56.7032890319824 46.1194839477539 30.502347946167 21.8612289428711 18.2179222106934 15.559308052063 11.0686063766479 9.09493923187256 5.29843807220459 6.36627817153931 11.0788326263428 6.53312826156616 8.51550388336182 7.51230525970459 2.63625168800354 4.44352293014526 4.3121337890625 1.59964621067047 1.30014228820801 1.11145639419556 0.671589732170105 2.20751857757568 3.26583623886108 4.75507116317749 4.36420917510986 4.60416603088379 5.30269527435303 4.2814154624939 5.07568264007568 6.5488452911377 6.78728580474854 5.90972375869751 57.7180595397949 54.7799339294434 55.5864486694336 33.0251655578613 17.2154102325439 22.1499996185303 4.94498825073242 20.0797672271729 14.0643243789673 11.2541818618774 0.191729933023453 10.724928855896 17.485595703125 42.0943069458008 24.7596225738525 42.3654251098633 46.4438438415527 10.9140710830688 3.29323792457581 2.71702480316162 3.57112383842468 8.11693477630615 12.8739356994629 10.4658861160278 3.10421657562256 3.46944618225098 3.49909591674805 6.73101329803467 7.21890115737915 6.09444046020508 5.62519598007202 6.48843431472778 5.22525596618652 6.5450267791748 6.0905909538269 6.4423565864563 4.02131414413452 5.56060457229614 50.3902549743652 14.2616987228394 9.23733043670654 10.7976741790771 47.0888442993164 51.698314666748 8.67066287994385 4.17858600616455 6.44550800323486 6.23840761184692 5.37856912612915 4.77835655212402 12.0247230529785 3.33040475845337 5.39448595046997 5.10577964782715 5.62024402618408 9.58345413208008 16.7567501068115 9.12857055664062 13.3892011642456 5.92225885391235 5.64410400390625 4.58943939208984 4.38484764099121 3.768963098526 2.92610454559326 20.5951251983643 1.17950356006622 8.97859287261963 0.750183761119843 0.461744099855423 0.747637510299683 1.07656800746918 0.943327486515045 0.79466700553894 1.44100177288055 1.59634256362915 6.27881765365601 1.94920110702515 1.57265448570251 2.18563842773438 2.58134007453918 2.82868266105652 9.10937786102295 9.24927139282227 1.73869705200195 1.44819962978363 0.446509391069412 0.632166028022766 1.00801932811737 1.73992133140564 1.26565003395081 1.14308500289917 1.93761396408081 12.1559915542603 2.66520166397095 3.51635026931763 28.3164768218994 31.4132213592529 28.7903327941895 19.872766494751 14.5988502502441 14.8794755935669 10.4185371398926 9.81269931793213 8.94027137756348 8.63216400146484 8.27505779266357 8.30984115600586 8.59454154968262 8.26259899139404 7.92940092086792 7.23710680007935 6.76036548614502 6.4369945526123 5.95397424697876 5.64099073410034 5.7977089881897 5.79183578491211 6.8667631149292 6.50861978530884 6.2728157043457 6.35579204559326 6.29264450073242 5.99208927154541 5.73911952972412 5.86741590499878 5.78580760955811 6.21140956878662 8.10013103485107 9.97842216491699 8.51497554779053 9.97108459472656 23.7127876281738 15.571816444397 10.6281785964966 9.37668514251709 8.64182376861572 8.00996398925781 7.92893648147583 8.53992938995361
-0.751964271068573 6.611083984375 5.75352668762207 -1.17147243022919 11.2330169677734 30.0754566192627 29.9483604431152 20.2919464111328 18.7660903930664 11.3311538696289 10.3699855804443 6.16153860092163 14.956826210022 10.7075128555298 1.59341835975647 10.074122428894 2.84079527854919 3.14853358268738 4.92268419265747 4.76883554458618 1.63481640815735 1.14337956905365 1.13241291046143 0.313939660787582 3.61543107032776 4.56265258789062 5.01544570922852 5.02128648757935 6.19162178039551 4.56255865097046 4.58995866775513 5.42511463165283 7.05034494400024 7.24726390838623 5.45644187927246 -0.508458197116852 22.0327243804932 3.44868540763855 34.180721282959 41.5646095275879 51.0956954956055 51.6089286804199 -0.358603179454803 24.1660118103027 13.4749441146851 2.6239128112793 0.913205921649933 3.35303163528442 7.72802019119263 24.5147304534912 11.1611547470093 2.76971197128296 7.23004770278931 2.67642498016357 3.34999322891235 3.79023289680481 15.4314222335815 14.1443901062012 9.86307239532471 3.46746730804443 3.57084369659424 3.51216125488281 7.16853618621826 7.68872928619385 5.44882535934448 5.89794731140137 6.78742361068726 6.24727249145508 6.90917778015137 6.93180894851685 5.95864200592041 5.58586454391479 5.90034675598145 2.42177081108093 22.2941493988037 0.440030544996262 10.2091760635376 2.26290726661682 3.21648406982422 4.81579160690308 8.44367790222168 7.43592357635498 6.21440124511719 5.47872495651245 5.27888154983521 14.0075950622559 6.12873029708862 5.55115699768066 5.76304244995117 6.73698091506958 23.901065826416 5.14531421661377 19.629186630249 13.6311664581299 8.07665157318115 5.74873208999634 5.61126899719238 4.71744155883789 4.23876333236694 3.10230398178101 1.76851940155029 1.48223400115967 14.4924716949463 1.39585244655609 1.00386190414429 16.7824935913086 1.28365302085876 1.58278524875641 1.741819024086 1.71173298358917 1.98007965087891 1.78020060062408 1.2823668718338 1.92894685268402 4.74400615692139 2.69821071624756 2.84197926521301 2.64406943321228 2.44869589805603 3.62893962860107 1.60553359985352 1.5709068775177 1.21818935871124 1.84472584724426 1.85166168212891 4.56525707244873 2.27246856689453 3.11525273323059 3.90595626831055 3.46290707588196 3.78813457489014 35.8544654846191 49.9124603271484 23.5205230712891 27.9805126190186 19.428466796875 13.241024017334 12.1134452819824 9.3875036239624 9.2603874206543 8.79592895507812 8.72910308837891 9.02176570892334 8.29287624359131 8.49365425109863 7.82549667358398 7.2475905418396 6.74618816375732 6.17797708511353 5.94003772735596 6.01642608642578 6.1565465927124 6.26778507232666 7.06690835952759 6.73050928115845 6.6927342414856 6.58484745025635 6.5214695930481 6.19567584991455 5.95006370544434 6.08431911468506 6.01768493652344 10.2856941223145 12.0180912017822 9.76147747039795 11.8853445053101 13.0886812210083 9.43681812286377 11.1497058868408 12.0930490493774 10.1080074310303 10.3335027694702 9.85011672973633 10.3819246292114 13.607307434082
-0.555300295352936 -1.20365726947784 -1.54648423194885 0.167847320437431 3.98657035827637 48.942512512207 32.912727355957 25.2843112945557 16.2782306671143 12.8824157714844 6.81762409210205 8.70557594299316 20.4138851165771 8.94501781463623 13.2748327255249 10.4433813095093 3.6185839176178 5.97565698623657 5.7411470413208 1.70889759063721 1.40214705467224 1.20700085163116 0.739067137241364 2.57740211486816 3.79655647277832 5.58635330200195 5.15764427185059 5.43945455551147 6.74667024612427 5.44060850143433 6.40846538543701 8.16774082183838 8.35920333862305 7.0171422958374 5.45480251312256 0.284753233194351 -1.24496257305145 6.66958522796631 39.7712707519531 4.16429328918457 0.124468684196472 0.0161202307790518 23.8383617401123 9.00597190856934 0.0747640281915665 0.0520147792994976 3.38434147834778 4.21009588241577 2.94430470466614 40.195369720459 33.3211441040039 15.3142385482788 3.92376112937927 2.71584606170654 4.58470296859741 10.0189752578735 18.1714267730713 13.366229057312 3.60482931137085 3.63863229751587 3.65651082992554 7.54589939117432 8.19830322265625 6.9158673286438 6.33195495605469 7.29614067077637 5.79657220840454 7.50540208816528 6.73457193374634 7.33201265335083 5.97376298904419 6.12965774536133 26.8822994232178 2.30392074584961 0.151105880737305 0.556260466575623 2.17068791389465 4.934739112854 10.7867431640625 7.17862415313721 7.17065048217773 6.76296615600586 5.89456844329834 5.79644918441772 26.3110485076904 4.58222436904907 7.90169525146484 6.16973161697388 6.18945598602295 23.4500560760498 4.69545602798462 5.44174528121948 4.89379692077637 8.29106521606445 6.03457641601562 6.01868104934692 5.98505401611328 4.96928453445435 4.1895956993103 3.00673365592957 1.81137609481812 1.67031121253967 1.61490774154663 1.67950642108917 1.13175022602081 1.02365660667419 1.64476048946381 1.7854106426239 2.05007076263428 2.17303872108459 2.62383842468262 1.82885336875916 2.06731915473938 2.90471267700195 2.94882130622864 3.51893615722656 5.45675563812256 12.2878437042236 2.62599420547485 2.30820941925049 2.4114625453949 2.19319796562195 14.4311571121216 2.41154766082764 12.4666061401367 13.7322473526001 9.64725303649902 4.18140029907227 3.89785647392273 3.66355490684509 4.44769716262817 3.72163319587708 4.69806909561157 48.8251953125 23.5916976928711 27.0432929992676 15.0863275527954 14.5839462280273 9.74529552459717 9.44060516357422 8.8938159942627 9.03845691680908 9.3414134979248 8.84722900390625 8.5046911239624 7.75614213943481 7.19027996063232 6.87252902984619 6.48324775695801 6.53800487518311 6.69007253646851 6.09330606460571 7.39537906646729 7.04458475112915 6.80890798568726 6.92344856262207 6.84382772445679 6.49191331863403 6.25511789321899 6.36352205276489 6.33788061141968 12.4353914260864 12.9734878540039 14.9428005218506 11.5674428939819 14.1395692825317 15.4321069717407 14.0047883987427 15.889045715332 17.6638317108154 12.111515045166 16.7690277099609 10.793420791626 10.8962049484253 14.5458488464355
3.99431109428406 -0.920564949512482 -0.795325934886932 -0.996667206287384 10.516001701355 9.476975440979 35.0956268310547 33.6791000366211 16.7864875793457 15.5030488967896 8.75048160552979 39.9179420471191 20.0696334838867 1.33826291561127 17.9424304962158 3.39162111282349 4.18546676635742 6.6480884552002 6.66245698928833 1.74825286865234 1.27022910118103 1.23653471469879 0.198920220136642 4.29053640365601 5.35248517990112 5.95420455932617 5.99006605148315 7.02003383636475 7.41703128814697 5.98791456222534 7.10631465911865 8.94149684906006 9.10976791381836 7.15686798095703 5.78190088272095 0.52171778678894 1.643226146698 -0.698918461799622 12.7325992584229 6.14806842803955 3.31614375114441 0.993334174156189 -0.455814450979233 -0.267500072717667 0.195108830928802 20.6423320770264 14.5982637405396 1.9402642250061 17.8625450134277 31.0213584899902 24.8795471191406 10.4791345596313 2.89521455764771 5.1732177734375 5.07382202148438 24.1687870025635 20.1854839324951 14.0112476348877 3.92962098121643 3.73949384689331 3.65331816673279 8.03664207458496 8.72600173950195 6.16606521606445 6.69108963012695 7.71093511581421 7.14214038848877 7.92413568496704 8.54523658752441 6.69482707977295 6.07451915740967 7.08286094665527 4.8371958732605 4.72484302520752 1.94956862926483 1.27209949493408 14.1531400680542 16.9163722991943 11.2453088760376 10.798846244812 11.2590999603271 7.11141443252563 9.21185398101807 6.42143583297729 4.53396368026733 10.8827495574951 6.48012018203735 7.14212465286255 7.09107112884521 5.04321384429932 10.470067024231 5.59663009643555 5.13447380065918 5.41821670532227 6.35158395767212 6.23304986953735 5.98198080062866 5.61210632324219 4.533203125 2.80652642250061 2.13490438461304 18.8058547973633 1.61767554283142 1.88451790809631 2.15712642669678 2.17159795761108 2.1265344619751 2.12297892570496 2.17150259017944 2.42225122451782 2.91979312896729 2.57614469528198 2.97288131713867 3.56178426742554 12.4403734207153 15.7776746749878 26.6466636657715 2.79831862449646 3.03545641899109 3.35591650009155 6.09218406677246 4.97395706176758 2.69919586181641 2.45658922195435 1.65576648712158 2.73749780654907 3.57801842689514 4.2484827041626 4.87734317779541 4.46297454833984 19.2233180999756 5.5978536605835 9.81811428070068 5.99089908599854 47.8625869750977 24.5049362182617 19.7506618499756 10.2468099594116 10.1231164932251 9.61377906799316 9.51846408843994 9.84517860412598 8.93621826171875 9.10546493530273 8.43230056762695 7.79806661605835 7.39587593078613 7.00770473480225 6.90854644775391 6.93086194992065 7.12568855285645 6.53350496292114 7.62778806686401 7.2663459777832 7.02036476135254 7.15121555328369 7.0766658782959 6.70082092285156 6.45697116851807 6.52261781692505 6.50276374816895 18.2399559020996 20.8873672485352 14.7927322387695 19.1452159881592 20.3230037689209 15.2318315505981 32.9650993347168 21.1220397949219 20.3926677703857 21.2119789123535 10.6825494766235 13.7671365737915 16.0186462402344 16.4099712371826
8.58545970916748 -0.0811189711093903 -0.730943441390991 -1.12560606002808 5.51010704040527 9.40058040618896 53.0814552307129 29.6212139129639 21.283052444458 9.63098335266113 14.8621826171875 0.145257651805878 17.8117790222168 35.3107757568359 18.7592105865479 4.90043449401855 7.75900220870972 7.95451164245605 2.28280305862427 1.51542019844055 1.32096970081329 0.822838842868805 3.13701248168945 4.59982585906982 6.79104566574097 6.42496013641357 6.78565263748169 9.00377082824707 6.11720609664917 6.61278438568115 7.76750230789185 9.88564014434814 10.0964498519897 7.8892707824707 5.90527248382568 0.580137431621552 -0.9853875041008 3.92059421539307 0.649754464626312 4.08481311798096 3.33576703071594 3.23140048980713 18.9674682617188 1.05831289291382 0.191745549440384 -0.247286960482597 -0.175638169050217 2.99794888496399 0.25431215763092 0.0697953179478645 27.9197578430176 5.45596790313721 3.87294125556946 6.82813453674316 13.468900680542 32.6885185241699 19.1531467437744 4.387047290802 3.78176498413086 3.82927775382996 8.7506217956543 9.42686939239502 7.78768873214722 7.11955070495605 8.27441596984863 6.46547985076904 8.67441368103027 7.48625183105469 9.75536251068115 6.58909940719604 6.57366418838501 7.37494707107544 10.1748695373535 7.90382719039917 4.87007141113281 3.39376974105835 6.04236030578613 23.026237487793 11.2215623855591 12.0227088928223 11.869348526001 15.4817295074463 6.35891723632812 11.6565132141113 5.50652694702148 15.6678676605225 9.57207298278809 7.83736085891724 7.64511775970459 5.90989208221436 5.50915002822876 5.98449087142944 6.35337448120117 6.44199991226196 6.45382070541382 6.45492267608643 5.9947829246521 5.65808439254761 4.60968732833862 3.23898100852966 2.36070704460144 2.20479249954224 2.36411690711975 9.03359317779541 2.57470393180847 2.59138107299805 2.98323130607605 2.697918176651 2.9447021484375 2.98394441604614 3.02981209754944 2.61068606376648 4.46978664398193 9.02186584472656 13.5894908905029 4.51659393310547 5.50496482849121 3.46559882164001 6.58313512802124 3.81518912315369 6.57272338867188 6.41669416427612 2.8603184223175 2.51334047317505 3.40783548355103 10.7595949172974 4.62359809875488 3.98037576675415 3.89481854438782 4.63055038452148 4.43613290786743 6.15629291534424 5.90337371826172 23.7771778106689 6.97726392745972 27.9867362976074 27.3798484802246 10.8604135513306 10.6852197647095 10.5272350311279 9.88047409057617 10.224760055542 9.50681495666504 9.22491359710693 8.7008113861084 8.05507373809814 7.97436761856079 7.58812236785889 7.63555765151978 7.83574676513672 6.93962717056274 7.04006481170654 7.84691667556763 7.47929859161377 7.49468660354614 7.37537574768066 7.27560997009277 6.90790510177612 6.78663158416748 6.78623151779175 35.3324928283691 25.0078277587891 28.4400367736816 20.3128662109375 26.3515911102295 27.863697052002 18.1611022949219 16.6777515411377 21.7333393096924 12.7595186233521 12.8812646865845 16.1168365478516 15.56529712677 17.4284286499023 20.7992172241211
12.4580011367798 26.2020587921143 -0.248505309224129 31.6242141723633 -1.06205642223358 -1.251824259758 4.11226463317871 29.1469173431396 28.895809173584 14.9150342941284 21.2517147064209 0.460980325937271 1.49590039253235 2.72929358482361 5.78715324401855 6.55190515518188 8.97417545318604 9.18324851989746 1.8992668390274 1.73347365856171 1.36907005310059 0.392095297574997 5.37446165084839 6.64037418365479 7.44841861724854 7.34994602203369 7.42731809616089 10.3558683395386 8.05920791625977 9.37585639953613 11.9348049163818 12.386794090271 10.0716695785522 7.8944091796875 6.27414131164551 0.719668984413147 -0.371046096086502 -0.428695678710938 3.07334542274475 3.40351557731628 3.08520007133484 35.6821517944336 0.744776785373688 1.95026886463165 1.02345395088196 0.0568270906805992 0.169247224926949 7.7949800491333 5.46988964080811 9.38322353363037 18.864767074585 4.0135760307312 11.3346529006958 9.2691125869751 54.7993392944336 35.7351570129395 25.5499515533447 5.0488452911377 3.91012573242188 3.83009505271912 9.45056247711182 10.2011737823486 6.93282890319824 7.49232006072998 8.69442749023438 8.09658908843994 9.17565822601318 12.8690805435181 9.15009689331055 6.59506511688232 6.81088495254517 9.2875394821167 15.6117143630981 16.0920677185059 10.2959613800049 3.46387553215027 27.2381076812744 15.7028045654297 13.6867198944092 13.1042098999023 12.9152956008911 5.82726860046387 7.77365636825562 7.56687021255493 16.0577697753906 12.9977788925171 13.241024017334 9.70648670196533 7.94989395141602 6.45587158203125 6.21976613998413 6.41689491271973 6.84501838684082 6.85154294967651 6.81994009017944 6.54336786270142 6.0880298614502 5.31381320953369 4.1928448677063 3.55284857749939 2.8979799747467 2.84978365898132 2.86065554618835 2.38553404808044 18.3994541168213 7.38109827041626 11.0143375396729 4.53263330459595 3.40894055366516 3.79655146598816 3.5143666267395 4.44015979766846 4.59687948226929 5.67215204238892 5.31286859512329 14.0294675827026 15.3820676803589 26.2224884033203 10.2421274185181 18.5646572113037 16.9240531921387 3.69741153717041 3.2792661190033 3.07776308059692 3.89100193977356 5.15796422958374 6.05682468414307 7.56697463989258 5.53156280517578 5.50984525680542 6.37855958938599 9.53036975860596 6.81196737289429 6.56122827529907 8.02940940856934 48.0599708557129 19.1205940246582 15.3861417770386 12.8654508590698 12.6837291717529 10.8105869293213 9.67982482910156 9.80456352233887 9.66020965576172 8.63457012176514 8.92953014373779 8.2662467956543 8.15221500396729 8.17573356628418 8.39164066314697 7.59912919998169 8.20782947540283 7.8245677947998 7.56412696838379 7.71343326568604 7.59081125259399 7.20263671875 6.96394491195679 6.93109893798828 7.01955938339233 19.3110427856445 50.2635307312012 39.4848327636719 48.030460357666 49.8750686645508 25.1113967895508 22.3763961791992 11.7122325897217 11.5331516265869 13.2502994537354 15.7264308929443 30.2875156402588 31.4518566131592 34.006893157959 20.4650382995605
0.341919630765915 4.74571228027344 11.9243478775024 -1.73084771633148 3.7845311164856 17.391508102417 1.43120336532593 46.6285743713379 15.6802577972412 40.7839508056641 6.52750635147095 0.672724545001984 37.3827247619629 0.541398584842682 15.5145301818848 12.1308860778809 11.9842500686646 1.82155585289001 1.62523138523102 1.39086544513702 1.41665959358215 3.99161338806152 5.88284063339233 7.97537612915039 8.54524326324463 8.0484504699707 13.0332717895508 7.44625377655029 8.95614051818848 10.5338439941406 14.0449237823486 14.0107698440552 11.3149356842041 8.71147918701172 6.98226356506348 5.99224042892456 4.82865524291992 3.76981472969055 3.25832605361938 3.46127533912659 3.46335434913635 1.23003947734833 3.40401220321655 2.73147058486938 1.62943947315216 0.671610057353973 1.47231924533844 0.22837333381176 0.475801527500153 0.559057235717773 9.70233249664307 3.33927750587463 7.58973741531372 19.3916797637939 10.530553817749 45.8016014099121 6.48086881637573 3.98197507858276 4.01617527008057 3.93300652503967 10.2430467605591 11.0222015380859 8.0287036895752 9.40446758270264 7.09800338745117 9.08813285827637 9.6955738067627 16.5510787963867 7.15627336502075 6.58292818069458 8.60543441772461 13.4109325408936 22.9309406280518 18.0219039916992 15.1140384674072 19.3235168457031 5.3459300994873 16.4770278930664 17.1533699035645 14.7447633743286 14.0964336395264 6.88297128677368 8.70331954956055 9.24619007110596 4.7916088104248 28.6134662628174 11.6464538574219 11.6558380126953 11.1890439987183 9.70367050170898 6.12848854064941 6.43355464935303 7.88753366470337 7.24408435821533 7.45789051055908 6.55803394317627 6.18511772155762 5.04148435592651 4.21228742599487 3.29303622245789 3.00155377388 2.91644763946533 2.85279035568237 3.14788246154785 2.56488704681396 3.43812346458435 16.6320037841797 3.86857438087463 5.07068204879761 6.34552240371704 6.05465126037598 5.093092918396 4.64422130584717 4.35726499557495 3.79264307022095 3.08140587806702 3.79032206535339 3.88633632659912 3.89698696136475 3.95867848396301 3.65399360656738 3.41862487792969 3.43247961997986 3.59876298904419 5.12184429168701 6.78174877166748 6.3456654548645 5.36808919906616 5.59491586685181 5.94246959686279 7.14549493789673 7.40336894989014 8.96604061126709 8.69064521789551 7.52988386154175 8.81430244445801 30.5646648406982 17.8422756195068 17.7007236480713 14.4307651519775 12.1574373245239 10.6869239807129 10.1122226715088 10.9374094009399 9.19851779937744 9.72254276275635 9.11496067047119 9.14021587371826 9.39003753662109 8.06665229797363 8.12070941925049 8.47215747833252 8.06569862365723 8.08932971954346 7.93651866912842 7.76274538040161 7.33989810943604 7.13119506835938 7.34957218170166 7.50600624084473 5.84769344329834 6.03113269805908 15.7184000015259 10.0215291976929 8.22898578643799 36.356201171875 29.8238048553467 21.0763778686523 20.9814109802246 19.4396953582764 30.1603927612305 16.8543300628662 20.2152996063232 18.5675945281982 25.3705654144287
26.1369323730469 18.8654880523682 -0.180144146084785 -0.328076243400574 -1.13240909576416 -1.53506851196289 -1.14850878715515 -0.467163175344467 36.1613426208496 4.53326559066772 13.518138885498 2.34576463699341 0.672709703445435 1.59928035736084 1.28873038291931 17.4330825805664 16.7496471405029 1.84626770019531 1.57386481761932 1.47019410133362 1.43552827835083 4.33537292480469 6.48800945281982 9.98996734619141 9.78652381896973 9.83527660369873 15.4617519378662 11.4680585861206 13.3992137908936 19.2196025848389 18.7833194732666 14.4897270202637 11.6160907745361 9.00847625732422 6.52780485153198 6.62518310546875 5.19661521911621 4.16104412078857 4.41449165344238 4.37405443191528 3.62736964225769 2.08417749404907 2.73886561393738 2.91571187973022 2.75488448143005 1.35566246509552 0.462554693222046 0.450265169143677 8.96086120605469 1.64941084384918 3.23662447929382 2.95017409324646 3.23621511459351 21.887264251709 0.475892007350922 1.18182301521301 8.09665489196777 4.71815824508667 4.01779556274414 11.5151739120483 12.3113584518433 9.36023044586182 8.32702445983887 9.79116630554199 7.34134769439697 10.8394708633423 31.0365600585938 11.0340986251831 6.91716623306274 7.55310440063477 11.8592548370361 24.6625156402588 30.0140647888184 24.2820835113525 22.0387134552002 35.0975341796875 26.5183925628662 22.9668388366699 19.2502326965332 18.4996242523193 17.4364109039307 13.8959102630615 10.840371131897 12.2397184371948 6.0774884223938 7.23847723007202 16.2511730194092 12.8555002212524 13.4657611846924 12.5210494995117 9.18429279327393 8.42685794830322 8.9743766784668 8.01923751831055 8.39774322509766 6.7790265083313 5.85701847076416 4.75004959106445 4.23016166687012 3.10252475738525 2.99675846099854 2.81802105903625 2.99933052062988 3.53341484069824 3.69650435447693 3.52709913253784 3.70562624931335 17.1092433929443 28.7715187072754 17.1651973724365 13.7153568267822 5.13236665725708 9.35827350616455 7.51970815658569 4.05814409255981 3.89695835113525 4.12258815765381 4.28466749191284 4.32342481613159 3.86569046974182 3.85699033737183 3.98472428321838 4.27204990386963 5.54017114639282 6.05382251739502 8.38545417785645 8.00507926940918 7.13644409179688 6.9205641746521 7.19984006881714 8.6718692779541 9.42046928405762 8.36715698242188 9.89617538452148 9.91060638427734 10.3296422958374 10.6551885604858 26.5056667327881 24.3733825683594 20.0686073303223 15.0301303863525 12.0532960891724 13.5567932128906 10.5962905883789 10.4398679733276 10.6425256729126 9.89793872833252 9.92548942565918 10.1646518707275 9.05760765075684 8.88933849334717 8.46494770050049 8.15189743041992 8.29720592498779 8.11978054046631 7.66798114776611 7.35756826400757 7.29446029663086 7.4672679901123 14.1618747711182 7.12293577194214 6.48968458175659 7.3657374382019 16.4131889343262 22.7371292114258 28.281135559082 24.2346858978271 20.4085559844971 24.1428146362305 26.1235389709473 17.6415042877197 18.9021434783936 20.6349868774414 20.3722591400146 21.34446144104
-0.0946485698223114 -0.040428139269352 0.311812162399292 0.217052549123764 -0.239908248186111 0.00767917651683092 -0.985621988773346 32.7798194885254 10.0161790847778 4.19755554199219 1.44795048236847 2.61048913002014 12.752516746521 1.21837568283081 28.5208721160889 35.7378005981445 1.91656768321991 1.90299427509308 1.40572082996368 1.7980033159256 0.923457205295563 7.81409454345703 9.74641609191895 12.564868927002 10.7691535949707 21.7603511810303 10.8869361877441 13.6118564605713 15.981032371521 26.1517200469971 25.5883674621582 17.2524681091309 13.9530935287476 10.344126701355 7.1605339050293 7.43218564987183 5.3991904258728 13.5462341308594 12.6079406738281 4.04024648666382 3.85038280487061 3.86482882499695 3.08391213417053 3.10484766960144 2.97066044807434 1.59981119632721 24.2790412902832 1.70651376247406 1.81104612350464 2.67899417877197 3.33143639564514 4.05868434906006 42.6119232177734 47.262866973877 0.795339226722717 7.98709964752197 6.81159019470215 4.96927738189697 4.0878267288208 12.6640968322754 13.195258140564 7.55169677734375 8.35327625274658 10.2645740509033 12.2063894271851 11.7915754318237 7.6815938949585 8.55157852172852 7.42880296707153 10.6984081268311 20.3869285583496 52.6225509643555 46.1201858520508 43.012077331543 52.4778709411621 26.5658569335938 18.0995578765869 31.3081016540527 23.9046688079834 23.0043106079102 35.3166427612305 18.249792098999 11.3098449707031 14.1315240859985 14.5820865631104 16.4987564086914 26.3188419342041 18.8244495391846 17.5698013305664 12.4146738052368 10.6583671569824 11.1070537567139 12.6433935165405 11.1623764038086 7.9282112121582 6.87285995483398 5.60117340087891 4.68934154510498 3.58130979537964 3.12665057182312 3.07690048217773 2.88713359832764 3.42028760910034 3.73081421852112 4.33597326278687 4.73468446731567 4.59091997146606 3.93751907348633 4.22735214233398 4.06533241271973 4.90073347091675 15.6037244796753 13.0114517211914 4.6763129234314 8.78700828552246 4.71767044067383 4.79298639297485 4.58721256256104 4.89356470108032 4.3562536239624 4.36220407485962 4.51622676849365 12.7535457611084 13.6071186065674 10.1235637664795 9.74613857269287 9.4682559967041 8.44789409637451 9.08645248413086 10.3360872268677 10.4633321762085 11.1449518203735 11.6399421691895 11.8191194534302 26.4189872741699 17.566291809082 18.613842010498 26.0048809051514 38.3126373291016 23.2236042022705 20.74582862854 13.739972114563 16.1419811248779 12.8700122833252 12.500189781189 11.2204313278198 11.1975984573364 10.7366142272949 10.9633283615112 9.67109680175781 9.13756847381592 8.67552185058594 8.71382713317871 8.52554607391357 8.27480983734131 7.78482532501221 7.42293500900269 7.41744947433472 7.50862884521484 17.2111988067627 26.8020801544189 8.73057174682617 27.4348449707031 36.6102447509766 12.9129371643066 17.0447235107422 22.9669418334961 26.3686504364014 25.9150238037109 22.4417972564697 21.0147476196289 23.8704261779785 31.5391979217529 28.1255474090576 22.6583480834961
1.07447421550751 0.883304476737976 1.24717617034912 1.71623778343201 1.14396345615387 1.32504999637604 0.327281922101974 -0.181409522891045 -0.248108103871346 1.9090793132782 3.03291964530945 2.06971383094788 1.48278856277466 1.9105908870697 1.0018492937088 1.04234373569489 2.03333783149719 1.67757189273834 1.56077134609222 1.61612677574158 5.68203639984131 8.7355785369873 14.2375621795654 15.1073522567749 17.1135425567627 29.5113754272461 19.70046043396 22.7492084503174 48.9747772216797 47.8287925720215 24.2075157165527 19.9627552032471 13.3257598876953 9.63217067718506 9.57320880889893 7.84901762008667 5.87066602706909 3.73057723045349 3.14743399620056 4.64676094055176 4.24136781692505 3.14733910560608 3.33386969566345 3.00788235664368 3.18385553359985 3.16323614120483 2.27856516838074 1.9883633852005 4.06350088119507 3.71564745903015 3.75400733947754 4.44334888458252 0.799398362636566 0.599034786224365 2.33166766166687 2.67254257202148 3.98450231552124 4.28100633621216 15.0353355407715 16.1639976501465 11.3164348602295 8.96116638183594 11.1595573425293 8.44929027557373 12.2038879394531 10.7626047134399 14.4212656021118 7.55756282806396 9.59466361999512 17.7148551940918 53.46142578125 2.94412994384766 9.53663349151611 17.0800037384033 6.29162311553955 5.45805692672729 20.8728179931641 33.8487930297852 32.6984100341797 31.6248264312744 18.6995754241943 17.3503589630127 16.9104499816895 14.4551725387573 44.3018646240234 43.7383422851562 8.25415992736816 25.5803203582764 24.1156463623047 16.1866893768311 23.8095874786377 24.1681289672852 15.5361976623535 12.3848247528076 8.96555137634277 7.19614934921265 5.88324594497681 5.00587320327759 3.75090456008911 3.19990372657776 3.14322757720947 3.09238433837891 3.79781436920166 4.11725330352783 4.56248235702515 4.99379920959473 4.83180141448975 5.38627529144287 5.1868052482605 5.44443225860596 5.96425819396973 4.58832216262817 4.8344612121582 19.589183807373 27.311487197876 20.3296070098877 7.25117158889771 5.15437269210815 5.23822402954102 5.00850868225098 5.75847148895264 11.8137712478638 16.892183303833 18.4336452484131 16.7002029418945 12.6446943283081 10.7761793136597 8.88935279846191 10.3300743103027 11.1982755661011 12.0061988830566 11.8628215789795 14.6601514816284 21.8947925567627 11.3241128921509 10.8882741928101 10.3250007629395 9.54380226135254 10.2828845977783 39.6294288635254 23.0727443695068 22.1518287658691 15.5264081954956 15.2067413330078 13.9945583343506 12.601016998291 12.4709415435791 12.6095294952393 10.0876655578613 10.2298526763916 9.04156112670898 8.71880722045898 8.89667129516602 8.69023704528809 8.16526508331299 7.81283283233643 7.49739360809326 7.85413837432861 30.2270278930664 23.5283164978027 8.57157516479492 36.1766014099121 19.7176380157471 12.4635915756226 19.5883617401123 27.2840938568115 30.1634616851807 32.2502861022949 31.2176685333252 29.6047420501709 24.1051177978516 25.3061447143555 26.7773990631104 28.1162166595459 15.5440673828125
1.08700811862946 0.850439131259918 1.91894924640656 1.59528458118439 1.65947592258453 2.22754740715027 1.9028183221817 2.17719316482544 1.39715933799744 1.92295813560486 1.70958757400513 2.07377910614014 1.872354388237 2.00180220603943 2.46944880485535 2.23426079750061 2.1848087310791 1.6123366355896 2.42963910102844 1.52822017669678 11.0262365341187 13.7005558013916 20.8747024536133 17.9770107269287 52.160285949707 22.439661026001 27.101863861084 30.8714027404785 15.0887498855591 15.8002433776855 32.5498924255371 27.3179016113281 15.9499864578247 10.2242937088013 10.9652328491211 8.48538208007812 6.7181224822998 5.83822202682495 5.38019466400146 4.964928150177 4.72729921340942 3.63397312164307 3.54154896736145 3.3639063835144 3.10302329063416 3.83441710472107 3.15101361274719 4.10935115814209 4.33264970779419 3.913729429245 3.98558878898621 4.81748819351196 3.78675770759583 1.29444897174835 3.06575870513916 3.90410304069519 4.1192307472229 4.24044942855835 17.5371131896973 18.8495693206787 10.5136995315552 10.1225357055664 12.2548522949219 12.2827234268188 16.0900726318359 19.7398109436035 10.5033626556396 11.292534828186 16.4734382629395 47.4007682800293 1.98062980175018 4.25214338302612 13.8258447647095 6.45337200164795 4.31134605407715 5.84885120391846 7.53413867950439 53.0831069946289 51.6288032531738 51.1034774780273 6.40930652618408 17.2787857055664 9.09670734405518 13.4607152938843 6.21807670593262 6.38547039031982 32.537166595459 31.7696781158447 19.3508224487305 16.4906978607178 11.6244087219238 8.25191879272461 9.72152042388916 11.9465656280518 7.80578374862671 6.86428689956665 5.61834287643433 4.49606323242188 4.33397579193115 4.07409524917603 3.04749631881714 3.81764197349548 3.92565131187439 4.73895883560181 5.31004762649536 5.10131168365479 5.09894704818726 5.44481563568115 5.31047391891479 5.83370399475098 6.0572772026062 5.81789588928223 5.16919374465942 4.37875032424927 4.60458850860596 5.25059652328491 5.24924755096436 5.4671459197998 21.9085750579834 10.4235897064209 6.86848115921021 35.8462753295898 40.4484634399414 32.0675506591797 19.4023952484131 19.0548076629639 9.72130870819092 10.0051803588867 11.9241352081299 12.1695604324341 12.6456699371338 13.1090211868286 12.5556926727295 12.0596361160278 11.9949064254761 11.0830497741699 10.2350702285767 10.4801950454712 11.0385894775391 9.87571048736572 22.1399326324463 28.9018859863281 20.8045978546143 17.0875778198242 16.0882301330566 15.2127504348755 13.7113304138184 13.8699140548706 11.7633495330811 9.81284999847412 9.22240257263184 9.31260967254639 9.10590648651123 8.79961109161377 8.25015830993652 7.61745977401733 7.93443584442139 8.01347732543945 10.7847995758057 12.0205698013306 9.57529926300049 33.5155181884766 6.87383413314819 29.7750549316406 24.4065742492676 22.1993637084961 25.8152542114258 32.4959373474121 27.9530601501465 27.726619720459 27.5315418243408 23.8559093475342 24.1478576660156 24.3799266815186 40.2077598571777
1.04526269435883 1.48152887821198 2.03815722465515 2.48922562599182 3.26941394805908 2.92627692222595 2.76887249946594 1.64591014385223 1.58064496517181 2.00594305992126 2.04052209854126 1.91432797908783 2.04191160202026 2.50081157684326 2.59404110908508 2.31814408302307 1.94272887706757 2.68921375274658 1.04510843753815 7.80145454406738 13.0839195251465 23.4147682189941 28.1650543212891 44.5797080993652 3.32739877700806 49.5943069458008 53.958683013916 60.0350952148438 20.057258605957 26.1988620758057 50.0469627380371 23.8869819641113 14.8188400268555 14.0361204147339 11.2702388763428 8.87287998199463 7.72418308258057 6.20673131942749 6.03515577316284 5.46083688735962 3.97651791572571 4.00147008895874 3.44972014427185 3.55004239082336 3.33725357055664 4.02690744400024 3.5755660533905 4.31742095947266 4.56854104995728 4.14105033874512 5.40919542312622 4.79998731613159 4.83273649215698 3.55479216575623 3.65902161598206 4.56111812591553 4.62039232254028 23.271032333374 24.9973125457764 16.230749130249 12.8270273208618 15.1707916259766 10.5247421264648 20.5403919219971 16.4170055389404 26.5247917175293 9.62272262573242 26.3270168304443 43.5640640258789 4.23826169967651 1.48700428009033 2.11948537826538 2.31863355636597 5.24060821533203 4.00612020492554 19.1436443328857 7.87085103988647 5.08631467819214 7.37442111968994 7.01166963577271 12.8468189239502 10.1943435668945 7.5868968963623 5.15582799911499 9.26613521575928 12.8269891738892 6.0637059211731 6.82651424407959 11.8224906921387 11.2745294570923 15.9095849990845 12.3759231567383 15.1177320480347 13.3434238433838 8.16158485412598 6.65484952926636 6.13302135467529 4.33734607696533 4.79878282546997 4.71840906143188 4.37458181381226 3.95666265487671 4.25396013259888 4.8445086479187 5.47201538085938 5.45170068740845 5.88980722427368 5.5255708694458 5.63926362991333 6.44479179382324 5.97747421264648 5.96026229858398 5.94999504089355 4.86088752746582 4.89591360092163 5.50200223922729 6.04093742370605 7.56744623184204 5.14287853240967 20.9473438262939 38.285228729248 7.1956729888916 6.13338088989258 8.90728855133057 20.571117401123 23.1587371826172 17.9322376251221 12.4634284973145 12.7909908294678 13.5234279632568 23.257194519043 15.7392568588257 14.8799028396606 14.296049118042 13.402943611145 12.9263916015625 12.2609834671021 11.049955368042 11.4720935821533 10.3102464675903 50.8177909851074 27.9933738708496 27.2817344665527 21.5792331695557 16.7035388946533 17.3450298309326 16.796480178833 12.3428001403809 12.829309463501 9.75860595703125 9.29967975616455 9.52302074432373 9.30719566345215 8.72664642333984 8.30068016052246 7.84498119354248 8.58042621612549 41.7206726074219 9.87310314178467 9.54335880279541 9.92543983459473 6.03349733352661 28.5938873291016 25.7500381469727 28.0612869262695 18.4630851745605 13.4176959991455 13.6974935531616 17.0361595153809 14.5273065567017 26.1479110717773 19.2008304595947 33.7586669921875 23.8924942016602 5.79447650909424
0.94631952047348 2.12240982055664 2.83461713790894 3.20806336402893 4.27747011184692 3.8574845790863 3.59541058540344 2.05558562278748 2.0730516910553 1.82592976093292 2.09210658073425 1.91888034343719 2.08960485458374 2.58959865570068 2.39181041717529 2.36066937446594 1.74206113815308 1.70933711528778 1.05937266349792 18.0953578948975 22.4639663696289 50.5338325500488 46.0906677246094 24.8154315948486 7.03794097900391 3.7098023891449 1.14184808731079 -0.713469266891479 -0.847689688205719 4.90354871749878 7.65288829803467 30.5847263336182 16.1053352355957 16.8049983978271 11.8642644882202 9.55714988708496 8.07041072845459 7.21910619735718 6.39363288879395 6.03196382522583 4.60117292404175 4.37104511260986 3.98169088363647 3.37436389923096 3.73955130577087 4.22889041900635 4.27533912658691 4.95103216171265 4.49227094650269 4.62008476257324 5.73986482620239 5.13114595413208 5.26120233535767 4.42834520339966 5.07544374465942 4.99943876266479 4.81403779983521 31.377326965332 33.0345268249512 16.5706520080566 15.1811256408691 18.1232776641846 19.717601776123 27.9421730041504 46.8064308166504 13.7617664337158 32.5854454040527 24.3092575073242 4.8529691696167 3.30237984657288 2.74800109863281 8.06533241271973 9.75442123413086 8.43556976318359 7.08983087539673 4.6631236076355 3.39720630645752 5.35306024551392 20.4818592071533 6.35118722915649 5.19246244430542 10.5853757858276 5.08324432373047 8.39287185668945 10.1277837753296 10.4350900650024 7.94597244262695 7.92900562286377 10.0009365081787 16.1638069152832 18.7665672302246 16.0857772827148 10.231951713562 13.4150228500366 9.10011386871338 6.63150215148926 7.33783864974976 5.14404582977295 4.97539758682251 4.82970905303955 4.4861741065979 4.29965114593506 4.62954044342041 4.93290042877197 5.64396095275879 5.61768198013306 6.09680318832397 6.06260824203491 6.56962013244629 6.70369386672974 6.33224821090698 6.24370288848877 5.78651666641235 5.21396493911743 5.83568286895752 5.92211627960205 6.6194314956665 9.81239891052246 16.4516048431396 7.06674528121948 6.48896980285645 6.46687984466553 14.6073894500732 8.98614978790283 8.6211404800415 13.9788875579834 24.6008720397949 15.2896490097046 14.7831792831421 14.4842901229858 13.4493026733398 15.8902254104614 15.8816270828247 16.1271266937256 14.7334823608398 13.6886606216431 13.7340364456177 27.790319442749 9.98238086700439 18.2917175292969 8.93628120422363 47.6188697814941 29.3688220977783 27.6165885925293 22.8328018188477 18.7387275695801 19.0200519561768 15.3461856842041 12.1953992843628 9.98479080200195 9.56661891937256 9.7700252532959 9.52682685852051 8.91701221466064 8.46887588500977 8.58573532104492 8.86494636535645 8.48764133453369 14.248779296875 11.3973731994629 12.1701145172119 9.43538284301758 6.28605222702026 9.42558860778809 16.8051052093506 22.1718788146973 19.2652950286865 19.4924812316895 22.1206951141357 39.6077537536621 20.8938751220703 26.215518951416 -1.58455860614777 16.9938659667969 23.960693359375
1.55502963066101 3.24527716636658 4.26750469207764 5.83118200302124 5.06166553497314 4.94996547698975 3.01581525802612 2.62625432014465 2.24229454994202 2.10418462753296 2.18048667907715 2.09057283401489 2.52844023704529 2.66461682319641 2.42368221282959 2.07272219657898 1.84530913829803 1.13143348693848 13.3457946777344 25.0017204284668 54.0513305664062 4.70313215255737 18.7994079589844 1.22288358211517 17.2881126403809 3.94506669044495 5.51637506484985 -1.4777215719223 -0.809095621109009 4.00583839416504 18.1371822357178 28.7932109832764 23.8522052764893 17.215353012085 13.7652635574341 10.8693161010742 9.13847732543945 8.058669090271 7.08463525772095 5.09818840026855 5.09123563766479 4.39093065261841 4.35474061965942 3.7134895324707 4.512282371521 4.05416870117188 4.90279483795166 5.24086666107178 4.75973081588745 6.28449440002441 5.656090259552 5.87570810317993 4.62698173522949 4.91415786743164 5.67510795593262 5.5434775352478 54.061595916748 55.5319061279297 29.2830238342285 22.7144470214844 24.6164264678955 17.9414920806885 50.1969528198242 41.2604789733887 6.88426971435547 27.4674167633057 12.7907962799072 5.29564905166626 6.05189943313599 5.9424033164978 14.1115493774414 5.72259283065796 25.3035869598389 9.26634407043457 8.34671592712402 8.47413349151611 7.02348279953003 5.96792268753052 5.44968414306641 6.36748123168945 21.3411140441895 8.39782428741455 6.52043342590332 17.3733081817627 16.4355716705322 19.5244693756104 14.3192834854126 18.1598472595215 12.6235933303833 6.95936727523804 7.36666917800903 6.95795774459839 13.7849912643433 14.707501411438 11.0243015289307 7.88961458206177 4.61432313919067 5.19673728942871 5.071204662323 4.61335468292236 4.50993061065674 4.70538949966431 5.15208292007446 5.86068105697632 5.69355535507202 5.79252147674561 6.28670358657837 6.30554866790771 7.16612482070923 6.714280128479 6.63231182098389 6.58033084869385 6.21976232528687 5.77226686477661 6.12559223175049 6.08581209182739 20.3403091430664 23.4177074432373 4.93081903457642 15.6774034500122 7.4441704750061 13.9631910324097 9.09526538848877 9.27853775024414 8.3894624710083 26.8591861724854 22.8510093688965 16.4277477264404 17.5439529418945 17.0988101959229 16.2806396484375 18.0906562805176 20.6692676544189 23.7092456817627 15.9184370040894 19.1154174804688 38.9955749511719 12.4443168640137 18.8527240753174 10.1093635559082 9.48019218444824 9.95080375671387 48.2750625610352 27.3639583587646 29.1356887817383 25.0822372436523 15.8712272644043 17.3009014129639 11.4207229614258 10.2494564056396 10.3869714736938 10.1116275787354 9.68517971038818 9.06163311004639 8.50486087799072 9.40753173828125 34.8915138244629 39.2709541320801 8.6210298538208 26.5173988342285 38.9389114379883 14.7442817687988 9.58215713500977 6.05772972106934 2.12067794799805 7.24394750595093 14.9198532104492 7.21047401428223 1.01214075088501 -0.867054402828217 -1.18177592754364 0.99007773399353 28.5900630950928 10.3232164382935 18.1120471954346
